-0.045211    -0.028520    0.998570     -0.084746    -0.180663    0.979887    
-0.000930    0.006183     0.999980     -0.001225    -0.020921    0.999780    
0.003425     0.002868     0.999990     0.014113     -0.012880    0.999817    
0.010837     0.062845     0.997964     0.058969     0.095744     0.993658    
-0.007199    -0.000842    0.999974     -0.011797    -0.002886    0.999926    
0.053139     -0.050230    0.997323     0.062182     -0.043286    0.997126    
0.060141     -0.068639    0.995827     0.260002     0.064468     0.963454    
0.041790     -0.017692    0.998970     0.048109     0.023316     0.998570    
-0.020014    -0.009227    0.999757     -0.030596    -0.014887    0.999421    
0.050075     -0.035288    0.998122     0.388221     -0.002398    0.921563    
0.135306     0.005002     0.990791     0.189618     -0.000861    0.981858    
0.036229     -0.027915    0.998954     0.073975     -0.034692    0.996657    
0.007255     0.014141     0.999874     -0.106664    0.006982     0.994271    
-0.054002    -0.050481    0.997264     0.723454     -0.165969    0.670126    
0.047893     0.039440     0.998073     0.115656     -0.328695    0.937328    
-0.015250    0.061062     0.998017     0.088886     0.163018     0.982611    
0.015794     0.008080     0.999843     -0.074663    0.023006     0.996943    
0.004668     -0.001375    0.999988     -0.004324    -0.015442    0.999871    
0.050531     0.012933     0.998639     0.048447     -0.018843    0.998648    
-0.006300    0.019906     0.999782     -0.035380    -0.030073    0.998921    
-0.039609    0.048383     0.998043     0.009374     -0.031226    0.999468    
0.002848     -0.004126    0.999987     0.010985     -0.033463    0.999380    
0.005957     0.000014     0.999982     0.018038     -0.032806    0.999299    
0.053294     -0.017910    0.998418     -0.011163    -0.010229    0.999885    
0.000443     -0.003208    0.999995     0.012539     -0.006573    0.999900    
0.053832     0.015810     0.998425     -0.011820    -0.090761    0.995803    
0.005080     0.012580     0.999908     -0.012456    -0.035653    0.999287    
-0.015389    -0.032552    0.999352     -0.034961    -0.004536    0.999378    
0.001412     -0.006800    0.999976     0.018609     0.031917     0.999317    
-0.019510    0.007962     0.999778     0.041185     0.049344     0.997932    
-0.016807    -0.045677    0.998815     -0.015529    -0.048974    0.998679    
-0.005049    -0.018677    0.999813     -0.002599    -0.014674    0.999889    
-0.024161    0.001730     0.999707     -0.002218    0.038726     0.999247    
0.019501     0.058819     0.998078     0.143262     -0.064465    0.987583    
0.011577     0.016797     0.999792     0.004381     0.035739     0.999352    
-0.030614    -0.027353    0.999157     -0.048260    -0.070437    0.996348    
-0.006150    -0.012390    0.999904     -0.009497    0.009197     0.999913    
-0.059907    0.003751     0.998197     -0.129548    -0.066001    0.989374    
-0.017146    0.082761     0.996422     0.014433     0.201226     0.979439    
-0.005859    -0.000246    0.999983     -0.073320    -0.030440    0.996844    
0.016216     -0.008554    0.999832     0.067738     0.048725     0.996513    
-0.003480    -0.007753    0.999964     0.012053     0.015699     0.999804    
-0.007383    0.017971     0.999811     -0.062518    0.052199     0.996678    
0.006335     -0.007183    0.999954     0.008779     -0.003344    0.999956    
0.021992     0.027805     0.999371     -0.045621    -0.067357    0.996685    
0.052626     0.018481     0.998443     0.146540     -0.150780    0.977646    
-0.107821    -0.085546    0.990483     -0.305165    -0.148595    0.940635    
0.038923     0.018367     0.999073     0.040738     0.005287     0.999156    
-0.002059    0.067655     0.997707     -0.126072    0.039591     0.991231    
0.008950     0.030317     0.999500     -0.034201    0.111601     0.993164    
0.012396     0.010326     0.999870     -0.003057    0.007470     0.999967    
0.042743     0.005122     0.999073     0.072669     0.141574     0.987257    
-0.016541    -0.020405    0.999655     -0.012132    -0.061800    0.998015    
0.009492     -0.006555    0.999934     0.025921     0.011903     0.999593    
-0.002283    0.057620     0.998336     -0.030561    0.131595     0.990832    
0.004790     0.000341     0.999988     0.007577     0.001415     0.999970    
-0.007981    0.025931     0.999632     -0.050000    0.056312     0.997160    
-0.049833    -0.040884    0.997920     0.005048     -0.078711    0.996885    
-0.007508    -0.008486    0.999936     0.002306     0.009296     0.999954    
-0.020052    0.017036     0.999654     -0.075059    0.020804     0.996962    
0.056355     0.052162     0.997047     0.037197     0.170796     0.984604    
0.053769     0.014574     0.998447     0.437319     -0.095924    0.894176    
-0.084781    -0.051187    0.995084     0.004091     -0.225191    0.974306    
0.014270     -0.000497    0.999898     0.003702     -0.010690    0.999936    
0.002701     -0.037831    0.999280     -0.010041    -0.010207    0.999897    
-0.010474    -0.003876    0.999938     -0.009876    0.021518     0.999720    
-0.006972    -0.012926    0.999892     -0.034335    -0.010877    0.999351    
-0.034841    0.032590     0.998861     0.026087     0.120890     0.992323    
0.037234     -0.001372    0.999306     -0.054038    -0.299984    0.952412    
0.020176     0.000263     0.999796     0.074226     -0.025012    0.996928    
0.004815     0.022243     0.999741     0.062452     0.058216     0.996349    
0.058041     -0.012339    0.998238     0.086308     -0.044631    0.995268    
0.027596     -0.032351    0.999096     -0.043524    -0.055822    0.997492    
0.002939     -0.004517    0.999985     0.007888     -0.005096    0.999956    
0.007904     0.004396     0.999959     -0.030685    -0.022236    0.999282    
0.044630     0.027915     0.998614     0.110451     0.048964     0.992675    
0.010621     0.017152     0.999797     0.173667     -0.424027    0.888843    
-0.046121    0.015881     0.998810     -0.003732    0.067926     0.997683    
-0.131819    -0.076575    0.988312     0.036763     -0.091133    0.995160    
-0.001474    0.003349     0.999993     0.001975     0.000092     0.999998    
0.056527     -0.033649    0.997834     0.016946     -0.038532    0.999114    
-0.035054    -0.057972    0.997703     -0.060208    -0.007940    0.998154    
0.005896     0.000558     0.999982     0.002783     0.060996     0.998134    
-0.024818    -0.007663    0.999663     0.042074     0.078189     0.996050    
0.020422     -0.059697    0.998008     0.071574     -0.000744    0.997435    
-0.045439    0.026006     0.998629     -0.034540    0.043735     0.998446    
0.006191     0.006297     0.999961     -0.002364    0.005662     0.999981    
-0.042300    -0.001753    0.999103     -0.066885    0.038245     0.997027    
0.019385     -0.025100    0.999497     -0.009722    0.027513     0.999574    
0.081886     0.057810     0.994964     0.030655     0.025739     0.999199    
-0.016304    0.002370     0.999864     0.012070     0.015852     0.999802    
0.040618     0.041527     0.998311     -0.064736    -0.050463    0.996626    
-0.002651    0.001492     0.999995     0.011002     -0.000917    0.999939    
-0.026999    -0.039333    0.998861     -0.036288    -0.039915    0.998544    
-0.019107    -0.063113    0.997824     -0.240869    0.196290     0.950501    
0.005606     0.026581     0.999631     0.000601     -0.011576    0.999933    
-0.003372    0.003015     0.999990     -0.072955    0.041884     0.996455    
-0.023102    0.011509     0.999667     -0.031249    -0.036010    0.998863    
0.025352     -0.001292    0.999678     0.067867     0.033529     0.997131    
0.044544     -0.006753    0.998985     0.154485     -0.034614    0.987389    
0.007965     -0.006979    0.999944     0.005128     0.022929     0.999724    
-0.032493    -0.004458    0.999462     -0.055160    0.087000     0.994680    
-0.074731    -0.007251    0.997177     -0.087672    -0.018184    0.995983    
0.016457     -0.034187    0.999280     0.050166     0.015402     0.998622    
0.029939     -0.015126    0.999437     0.017914     -0.205645    0.978463    
-0.079546    0.024235     0.996537     -0.258266    0.061511     0.964114    
0.011332     0.003203     0.999931     0.093751     -0.012806    0.995513    
-0.069155    -0.021530    0.997374     0.013439     0.004156     0.999901    
0.042552     -0.021597    0.998861     0.034680     -0.048351    0.998228    
-0.051020    -0.065598    0.996541     0.322874     -0.381433    0.866176    
0.079892     0.004789     0.996792     0.160501     -0.022181    0.986786    
0.003829     -0.002653    0.999989     -0.006977    0.008137     0.999943    
0.014884     0.005178     0.999876     0.050612     0.019235     0.998533    
0.078126     0.020201     0.996739     -0.209321    -0.259840    0.942692    
0.000650     -0.008392    0.999965     0.001829     -0.015940    0.999871    
-0.007181    -0.005341    0.999960     -0.005478    -0.008325    0.999950    
0.016181     -0.020077    0.999668     0.015961     -0.022137    0.999627    
0.010018     -0.024686    0.999645     0.016084     -0.021406    0.999641    
0.069787     -0.096686    0.992865     0.035080     0.058557     0.997668    
0.001632     0.006407     0.999978     -0.019139    0.028653     0.999406    
0.083348     -0.019264    0.996334     0.322294     -0.027560    0.946238    
-0.012478    -0.017528    0.999769     -0.021729    -0.111210    0.993559    
0.045455     -0.039470    0.998186     -0.102825    0.019115     0.994516    
-0.028260    0.022781     0.999341     -0.053869    -0.031293    0.998058    
-0.000530    -0.016172    0.999869     0.033428     0.042467     0.998539    
-0.048754    0.042267     0.997916     0.131103     -0.286709    0.949005    
-0.050692    0.015568     0.998593     -0.035481    -0.012625    0.999291    
-0.027470    -0.004367    0.999613     0.027416     -0.036016    0.998975    
0.070979     -0.079778    0.994282     0.376641     -0.277322    0.883874    
-0.028608    0.028938     0.999172     -0.122349    0.079149     0.989326    
0.012946     0.030983     0.999436     0.026083     0.030528     0.999193    
0.029549     -0.032254    0.999043     0.028342     -0.021913    0.999358    
-0.014308    0.020859     0.999680     0.023181     0.030360     0.999270    
0.005115     -0.015565    0.999866     0.019833     -0.017644    0.999648    
0.053629     -0.011182    0.998498     -0.004789    -0.015268    0.999872    
-0.030176    0.012299     0.999469     -0.037438    0.057658     0.997634    
0.017103     -0.028240    0.999455     -0.029235    0.025262     0.999253    
0.003277     -0.005828    0.999978     0.006523     -0.001587    0.999978    
-0.055862    -0.002033    0.998436     -0.022498    -0.025129    0.999431    
-0.032082    0.006284     0.999465     -0.003733    -0.001942    0.999991    
-0.021690    -0.015736    0.999641     -0.127001    0.088430     0.987953    
0.021946     0.002503     0.999756     0.027843     0.013890     0.999516    
0.009475     -0.063657    0.997927     -0.386677    0.042330     0.921243    
-0.087919    -0.036950    0.995442     0.158188     -0.086095    0.983648    
0.019048     0.027157     0.999450     -0.001782    0.052434     0.998623    
-0.011933    -0.006785    0.999906     -0.030943    0.018790     0.999344    
-0.017632    0.019053     0.999663     -0.425320    0.040140     0.904152    
0.003149     -0.081054    0.996705     -0.010075    0.010684     0.999892    
0.008758     0.018961     0.999782     -0.000533    0.024693     0.999695    
-0.123621    0.172491     0.977223     -0.282591    -0.124485    0.951129    
0.044476     -0.020580    0.998798     -0.033939    -0.016741    0.999284    
0.042621     0.090799     0.994957     -0.078714    0.047327     0.995773    
-0.120267    0.009948     0.992692     -0.106070    -0.328293    0.938602    
-0.011967    0.010188     0.999876     -0.009390    -0.001331    0.999955    
0.001529     0.010770     0.999941     -0.055788    -0.005219    0.998429    
0.004971     0.015616     0.999866     -0.034470    0.055110     0.997885    
-0.083766    0.045516     0.995445     -0.193444    0.064572     0.978984    
-0.071031    -0.038474    0.996732     -0.012387    -0.052047    0.998568    
-0.013875    -0.044084    0.998931     -0.028647    -0.085703    0.995909    
-0.024181    -0.000074    0.999708     -0.041002    0.015587     0.999037    
-0.044950    0.000227     0.998989     -0.042572    -0.076867    0.996132    
-0.001655    -0.048228    0.998835     0.088469     0.095281     0.991511    
-0.012506    0.002905     0.999918     0.041302     0.010002     0.999097    
-0.034484    0.076254     0.996492     -0.248396    0.128932     0.960040    
-0.014894    0.049874     0.998644     0.044629     -0.069552    0.996579    
0.001601     -0.074085    0.997251     -0.165792    -0.145121    0.975424    
0.009880     -0.023093    0.999685     -0.134544    -0.007682    0.990878    
0.015695     0.002064     0.999875     0.010981     0.024632     0.999636    
0.013768     -0.009177    0.999863     -0.001233    0.042773     0.999084    
-0.005976    0.021996     0.999740     -0.032665    0.052039     0.998111    
0.151178     -0.024261    0.988209     0.080215     -0.121282    0.989372    
-0.009644    0.010896     0.999894     -0.030198    0.018202     0.999378    
-0.009188    -0.050641    0.998675     0.162924     -0.072810    0.983949    
-0.017057    0.004551     0.999844     0.044060     0.133574     0.990059    
-0.013945    -0.009696    0.999856     0.001352     -0.008598    0.999962    
-0.003684    0.016691     0.999854     -0.047351    0.040733     0.998047    
0.002481     -0.004768    0.999986     0.054986     0.033294     0.997932    
-0.022564    0.007638     0.999716     -0.046813    -0.070415    0.996419    
0.025417     -0.059874    0.997882     0.062801     0.071823     0.995438    
-0.017449    0.000971     0.999847     0.008770     0.061932     0.998042    
-0.036121    -0.077130    0.996367     -0.301398    -0.499061    0.812464    
-0.093869    -0.038213    0.994851     -0.205969    -0.141183    0.968320    
0.044435     0.050376     0.997741     0.015270     0.065050     0.997765    
0.002311     -0.009407    0.999953     -0.091768    -0.047010    0.994670    
0.008698     0.028425     0.999558     -0.004772    -0.004396    0.999979    
0.020142     0.019102     0.999615     0.040238     0.004269     0.999181    
-0.015735    0.006369     0.999856     0.004062     0.016606     0.999854    
0.006483     -0.023348    0.999706     -0.031702    -0.032682    0.998963    
-0.024879    0.021937     0.999450     -0.020177    0.026612     0.999442    
0.107122     -0.010589    0.994189     -0.051783    0.044254     0.997677    
0.017877     -0.136789    0.990439     -0.141953    -0.248279    0.958231    
-0.000798    -0.041672    0.999131     0.102741     -0.022840    0.994446    
0.028561     0.046122     0.998527     0.068705     0.057471     0.995980    
0.015642     0.024563     0.999576     0.014278     0.039492     0.999118    
0.006217     -0.023142    0.999713     -0.546576    0.077727     0.833794    
-0.065152    0.012473     0.997797     -0.155562    0.341183     0.927036    
-0.001856    -0.009385    0.999954     0.018297     0.003588     0.999826    
0.047193     0.032514     0.998356     -0.117788    0.002844     0.993035    
-0.012068    -0.054182    0.998458     -0.093518    -0.305629    0.947547    
0.024424     -0.086025    0.995994     0.059866     -0.076601    0.995263    
-0.030385    0.023380     0.999265     -0.030167    0.022095     0.999301    
-0.021586    0.011313     0.999703     -0.084280    0.042461     0.995537    
-0.018487    -0.026063    0.999489     -0.036132    -0.042166    0.998457    
-0.032387    0.004500     0.999465     -0.059477    -0.002298    0.998227    
-0.017962    -0.046368    0.998763     0.018864     -0.056697    0.998213    
0.002064     -0.000167    0.999998     0.056401     -0.056258    0.996822    
-0.000221    -0.001103    0.999999     0.018554     -0.013790    0.999733    
-0.005750    -0.012418    0.999906     0.024140     0.016970     0.999565    
0.018555     0.064338     0.997756     0.026212     0.128566     0.991354    
-0.008945    0.002113     0.999958     0.040755     -0.018269    0.999002    
-0.051955    -0.053772    0.997201     -0.078317    -0.017903    0.996768    
0.021690     -0.054739    0.998265     -0.021092    -0.053359    0.998353    
-0.012481    0.081656     0.996582     0.058721     0.029738     0.997831    
-0.098459    -0.018263    0.994974     -0.157842    -0.193635    0.968293    
-0.007647    -0.006387    0.999950     0.006250     0.005741     0.999964    
-0.069450    -0.076974    0.994611     -0.088154    -0.173621    0.980859    
-0.014092    -0.013753    0.999806     0.187884     -0.021463    0.981957    
-0.031521    -0.026257    0.999158     -0.044652    -0.029285    0.998573    
0.000794     -0.003809    0.999992     -0.027196    0.028761     0.999216    
0.001631     -0.020217    0.999794     -0.071534    -0.041476    0.996576    
0.045149     -0.064596    0.996890     0.059701     -0.129582    0.989770    
0.002045     -0.005799    0.999981     -0.011373    -0.019516    0.999745    
-0.029130    -0.006265    0.999556     -0.024266    -0.020044    0.999505    
-0.010041    -0.013512    0.999858     -0.015905    -0.035662    0.999237    
-0.011956    0.000419     0.999928     0.006379     0.015362     0.999862    
-0.050486    -0.018405    0.998555     -0.038484    -0.053023    0.997851    
0.002721     -0.021214    0.999771     0.043793     -0.013135    0.998954    
-0.014697    0.008477     0.999856     0.013858     0.005727     0.999888    
-0.038085    -0.015912    0.999148     -0.056224    -0.064064    0.996361    
0.127281     0.006850     0.991843     0.017346     0.249994     0.968092    
-0.087529    -0.016702    0.996022     -0.102086    0.021646     0.994540    
0.000314     0.005069     0.999987     0.016642     0.002021     0.999860    
0.014510     -0.023503    0.999618     0.014051     -0.030699    0.999430    
-0.017273    -0.025739    0.999519     0.000304     -0.027464    0.999623    
0.015072     0.017029     0.999741     -0.000243    0.034689     0.999398    
-0.001495    -0.003077    0.999994     -0.314906    -0.002334    0.949120    
-0.000683    0.042879     0.999080     0.032421     -0.017962    0.999313    
-0.046382    -0.021522    0.998692     0.004923     -0.021048    0.999766    
0.004898     0.064815     0.997885     -0.007895    0.081411     0.996649    
-0.010491    -0.001544    0.999944     -0.010711    0.004881     0.999931    
0.064582     0.009944     0.997863     0.064809     0.044403     0.996909    
0.028798     -0.002015    0.999583     0.049898     0.010816     0.998696    
-0.024998    -0.124139    0.991950     -0.073960    -0.231154    0.970102    
0.072362     -0.069506    0.994954     0.075727     -0.007020    0.997104    
0.072367     0.057636     0.995711     0.109876     -0.008107    0.993912    
0.006973     0.003159     0.999971     -0.016168    0.011873     0.999799    
-0.031824    -0.053627    0.998054     -0.097443    -0.133025    0.986311    
-0.036813    0.020170     0.999119     -0.248252    0.576459     0.778503    
-0.039906    0.038135     0.998476     0.058650     -0.011442    0.998213    
0.066965     -0.024528    0.997454     0.484559     -0.215021    0.847920    
-0.013487    -0.025046    0.999595     0.159299     0.177878     0.971073    
0.074424     0.017103     0.997080     0.204572     0.049355     0.977606    
-0.011540    0.003927     0.999926     -0.032870    -0.001503    0.999458    
-0.010375    -0.026832    0.999586     -0.002574    -0.077790    0.996966    
0.009173     0.007720     0.999928     0.069357     0.015017     0.997479    
-0.005021    -0.000471    0.999987     0.047790     0.017976     0.998696    
-0.025078    -0.025503    0.999360     -0.069587    -0.109611    0.991536    
0.053262     -0.092176    0.994317     0.102795     -0.082647    0.991263    
-0.004638    -0.008735    0.999951     -0.003542    -0.010095    0.999943    
0.026889     0.033555     0.999075     -0.008892    0.023506     0.999684    
-0.037728    0.003463     0.999282     -0.057282    0.113147     0.991926    
0.026721     -0.013788    0.999548     0.101417     -0.060012    0.993032    
-0.032581    0.016143     0.999339     -0.022060    0.129241     0.991368    
-0.002194    0.003087     0.999993     0.009722     -0.001228    0.999952    
-0.010827    0.054574     0.998451     0.006261     0.107006     0.994239    
-0.059731    0.017631     0.998059     -0.109654    0.034108     0.993384    
0.069532     -0.031294    0.997089     0.170862     -0.040409    0.984466    
0.000504     -0.000215    1.000000     0.004032     -0.029057    0.999570    
0.011113     0.027008     0.999573     0.021837     0.032619     0.999229    
-0.024119    -0.011480    0.999643     -0.051815    0.047867     0.997509    
-0.018019    0.012895     0.999754     -0.102179    -0.003072    0.994761    
-0.033008    0.053714     0.998011     -0.025589    0.068697     0.997309    
-0.025431    -0.003059    0.999672     -0.235622    0.241871     0.941265    
0.011458     0.011733     0.999866     -0.024910    0.025021     0.999376    
0.006749     -0.111606    0.993730     0.066660     -0.166918    0.983715    
-0.010124    -0.020540    0.999738     -0.032606    -0.003304    0.999463    
0.018560     -0.032826    0.999289     0.046775     0.012177     0.998831    
-0.005058    -0.002513    0.999984     0.000616     0.002672     0.999996    
-0.003913    -0.036307    0.999333     0.021229     -0.081990    0.996407    
0.019746     -0.019518    0.999614     -0.010929    -0.043764    0.998982    
0.001475     -0.001356    0.999998     0.025742     0.010943     0.999609    
-0.007692    -0.000299    0.999970     -0.050459    0.034359     0.998135    
0.025210     0.041323     0.998828     0.036311     0.019807     0.999144    
0.001979     -0.023205    0.999729     -0.054993    -0.072615    0.995843    
-0.004501    -0.047009    0.998884     0.051611     -0.033526    0.998104    
-0.027966    -0.002166    0.999607     -0.077238    0.015666     0.996890    
0.005675     0.004797     0.999972     -0.004436    0.003230     0.999985    
0.002166     -0.026959    0.999634     0.007454     -0.003283    0.999967    
-0.038786    0.017000     0.999103     -0.036971    0.023104     0.999049    
0.005736     -0.013926    0.999887     0.045971     -0.007508    0.998915    
-0.006733    -0.048427    0.998804     0.019494     -0.083543    0.996313    
0.008372     0.069004     0.997581     0.050404     0.059857     0.996934    
0.024383     -0.013592    0.999610     0.026447     -0.017392    0.999499    
-0.038694    -0.015223    0.999135     -0.138500    0.026152     0.990017    
-0.050027    -0.186870    0.981110     -0.381086    0.216958     0.898723    
-0.027607    -0.004015    0.999611     -0.012254    0.014218     0.999824    
-0.167100    0.051964     0.984570     -0.183589    -0.037081    0.982303    
-0.009345    0.024938     0.999645     0.011782     0.020325     0.999724    
0.001089     -0.003082    0.999995     -0.010864    -0.008460    0.999905    
-0.057309    0.045625     0.997313     0.347320     0.057077     0.936008    
0.000852     0.004350     0.999990     0.004915     0.002890     0.999984    
-0.003866    -0.031957    0.999482     -0.103965    -0.129313    0.986139    
0.002016     0.081493     0.996672     0.026223     0.224682     0.974079    
0.023835     -0.071408    0.997162     0.027402     -0.042335    0.998728    
-0.070138    0.025590     0.997209     -0.149464    0.112885     0.982302    
-0.046767    -0.039293    0.998133     -0.160817    0.045005     0.985958    
0.035294     0.030427     0.998914     0.077280     0.033187     0.996457    
0.010648     0.076998     0.996974     -0.012371    0.125209     0.992053    
0.001599     0.024050     0.999710     -0.357203    -0.797291    0.486552    
0.034970     -0.002842    0.999384     0.039034     0.020234     0.999033    
-0.040161    -0.068608    0.996835     -0.057224    0.019809     0.998165    
0.009151     0.018937     0.999779     -0.989938    0.101708     -0.098378   
0.025317     -0.004697    0.999668     0.036837     -0.082983    0.995870    
-0.007542    0.004842     0.999960     -0.143565    -0.015595    0.989518    
-0.010115    0.023377     0.999676     -0.017729    0.113350     0.993397    
-0.085234    0.089085     0.992370     0.349882     0.015933     0.936658    
-0.081791    0.054436     0.995162     -0.371307    0.244680     0.895691    
0.005733     -0.030356    0.999523     -0.085535    0.008699     0.996297    
0.011654     -0.025735    0.999601     0.009434     -0.037576    0.999249    
-0.019752    -0.120338    0.992536     0.051464     -0.128612    0.990359    
0.038477     0.012619     0.999180     0.005215     0.044578     0.998992    
0.045159     -0.025548    0.998653     0.231117     0.138624     0.962999    
-0.044759    -0.034843    0.998390     -0.018664    -0.045560    0.998787    
0.022281     -0.043758    0.998794     0.069123     -0.085937    0.993900    
-0.070588    -0.025858    0.997170     0.114648     -0.025100    0.993089    
0.001190     -0.004660    0.999988     0.005338     0.004596     0.999975    
-0.013147    -0.011371    0.999849     0.012128     -0.008576    0.999890    
0.094437     -0.013495    0.995439     0.110979     -0.015452    0.993703    
-0.065970    0.063705     0.995786     0.322877     0.090588     0.942096    
-0.040790    -0.032110    0.998652     -0.155075    -0.459692    0.874434    
0.006738     -0.005784    0.999961     0.018122     -0.005049    0.999823    
0.002673     0.003560     0.999990     0.014675     0.003691     0.999886    
-0.010935    0.012609     0.999861     -0.022616    0.037351     0.999046    
0.026455     -0.003401    0.999644     0.034165     0.041176     0.998568    
0.008498     0.022841     0.999703     -0.011270    0.035194     0.999317    
-0.004668    -0.021438    0.999759     0.052759     -0.069743    0.996169    
0.002214     0.002516     0.999994     -0.008209    0.014270     0.999865    
0.124813     0.097038     0.987424     0.482753     0.577192     0.658634    
-0.021837    0.057206     0.998123     -0.085193    0.057469     0.994706    
-0.137227    -0.087311    0.986684     -0.229302    -0.058786    0.971579    
-0.023771    0.056766     0.998105     0.150563     -0.029622    0.988156    
0.037148     0.025251     0.998991     0.107223     -0.051395    0.992906    
0.007704     -0.009086    0.999929     0.005270     -0.003114    0.999981    
0.071092     0.035926     0.996823     0.388883     0.429397     0.815100    
-0.126547    -0.081857    0.988578     -0.081834    0.047141     0.995530    
0.046324     0.012826     0.998844     -0.023708    0.039668     0.998932    
0.013171     0.064697     0.997818     0.121338     -0.366684    0.922399    
0.004549     -0.010050    0.999939     0.015045     0.034709     0.999284    
-0.015332    -0.019507    0.999692     -0.154934    -0.082356    0.984486    
-0.030171    0.025783     0.999212     0.007955     0.089426     0.995962    
0.028169     0.012475     0.999525     0.035580     0.032980     0.998822    
-0.071012    0.106173     0.991809     0.008509     0.336687     0.941578    
-0.025974    0.009859     0.999614     -0.024281    0.036905     0.999024    
-0.045283    0.009348     0.998930     0.258140     0.102574     0.960647    
-0.015103    0.006515     0.999865     -0.039528    0.035050     0.998603    
0.044784     0.048082     0.997839     0.037586     0.046239     0.998223    
0.029117     0.067931     0.997265     0.056517     -0.080608    0.995142    
0.066182     0.070538     0.995311     -0.037053    0.215236     0.975859    
0.029272     0.020217     0.999367     0.052429     -0.060923    0.996765    
0.007524     -0.006335    0.999952     0.027178     -0.200967    0.979221    
0.006912     -0.045463    0.998942     -0.003313    -0.063045    0.998005    
0.000353     -0.032611    0.999468     -0.013217    -0.067433    0.997636    
0.015234     -0.017891    0.999724     -0.124973    0.052692     0.990760    
-0.004068    0.023211     0.999722     -0.000703    0.026052     0.999660    
0.006806     0.000763     0.999976     -0.000137    0.003041     0.999995    
-0.002305    0.024602     0.999695     -0.000952    -0.014421    0.999896    
0.011189     -0.012080    0.999864     0.220267     -0.083828    0.971831    
-0.010127    0.006424     0.999928     -0.009766    0.011710     0.999884    
-0.006284    -0.001178    0.999980     -0.022903    -0.036916    0.999056    
-0.018164    -0.019376    0.999647     -0.094101    0.279672     0.955473    
-0.053474    -0.023404    0.998295     -0.001542    -0.018033    0.999836    
0.003036     -0.032928    0.999453     0.252664     -0.175309    0.951540    
-0.052298    -0.017056    0.998486     -0.093640    0.154712     0.983512    
-0.006902    -0.070458    0.997491     -0.057595    -0.056097    0.996763    
-0.101108    -0.056749    0.993256     -0.206436    -0.168503    0.963842    
-0.028293    0.008076     0.999567     0.373155     0.659353     0.652693    
0.072603     -0.066771    0.995123     0.162365     -0.291040    0.942833    
-0.032985    -0.019254    0.999270     -0.098330    -0.115460    0.988433    
0.005590     0.004269     0.999975     0.013072     -0.004837    0.999903    
0.079694     -0.035177    0.996198     0.504124     -0.230325    0.832352    
0.002439     -0.000106    0.999997     -0.009714    -0.010860    0.999894    
0.070774     -0.063675    0.995458     0.167241     -0.056257    0.984310    
0.014874     -0.025375    0.999567     -0.024461    -0.000017    0.999701    
-0.003346    -0.006546    0.999973     -0.007140    0.000440     0.999974    
-0.005444    0.097612     0.995210     -0.051752    0.046323     0.997585    
0.009417     0.013848     0.999860     0.018299     0.021896     0.999593    
-0.089811    -0.044461    0.994966     -0.020994    0.133621     0.990810    
0.047803     0.035318     0.998232     0.289014     0.092942     0.952802    
0.040097     -0.017039    0.999051     0.141062     0.264009     0.954149    
-0.003204    -0.061214    0.998119     -0.261871    -0.332984    0.905839    
-0.005437    0.009400     0.999941     0.027320     -0.043390    0.998685    
0.039225     -0.019812    0.999034     0.135583     -0.096780    0.986028    
0.016042     -0.000606    0.999871     0.041404     -0.000762    0.999142    
0.139618     -0.028065    0.989808     0.146299     -0.131481    0.980464    
0.016854     0.003112     0.999853     0.022034     0.013911     0.999660    
0.019741     0.026751     0.999447     0.060716     0.008576     0.998118    
-0.012589    -0.042447    0.999019     -0.025122    -0.037525    0.998980    
0.046995     0.028044     0.998501     0.131748     0.091239     0.987075    
-0.006089    -0.018551    0.999809     -0.001265    -0.025018    0.999686    
-0.052821    0.046972     0.997499     -0.027843    -0.046915    0.998511    
0.026903     0.024028     0.999349     0.002551     0.078300     0.996927    
0.007296     0.031106     0.999490     -0.015639    0.086347     0.996142    
-0.008963    0.002833     0.999956     -0.339598    -0.159957    0.926869    
0.025110     -0.014584    0.999578     0.400554     0.421220     0.813714    
-0.002142    -0.003964    0.999990     0.024691     0.008969     0.999655    
-0.027825    -0.020126    0.999410     -0.027168    -0.034662    0.999030    
0.026422     0.073971     0.996910     -0.095024    0.094354     0.990993    
-0.001866    -0.048199    0.998836     -0.034395    -0.049488    0.998182    
-0.011712    0.003626     0.999925     -0.052382    0.033899     0.998052    
-0.084455    -0.088518    0.992488     -0.106261    -0.218904    0.969943    
0.018119     -0.020066    0.999634     0.023275     -0.007931    0.999698    
-0.076505    0.041105     0.996222     -0.230218    -0.032924    0.972582    
-0.014036    0.067973     0.997588     0.040700     0.054182     0.997701    
0.073452     -0.072413    0.994666     0.134419     -0.145642    0.980163    
-0.048038    -0.043535    0.997896     -0.032923    -0.071948    0.996865    
-0.033762    0.019701     0.999236     -0.125091    0.095105     0.987577    
0.016557     -0.013048    0.999778     -0.162829    0.025836     0.986316    
0.028725     0.011025     0.999526     0.044111     -0.003267    0.999021    
-0.120400    -0.028042    0.992329     -0.205095    0.089208     0.974668    
0.032562     0.002823     0.999466     0.118721     -0.081026    0.989616    
0.053482     -0.023947    0.998282     0.011834     -0.065185    0.997803    
-0.022731    0.011458     0.999676     -0.062531    0.011667     0.997975    
-0.010434    -0.004956    0.999933     -0.009186    -0.046329    0.998884    
-0.007997    0.008554     0.999931     -0.019448    0.011524     0.999744    
0.047645     -0.022020    0.998622     0.089647     -0.155463    0.983765    
0.166646     -0.029886    0.985564     -0.073317    0.104793     0.991788    
0.056583     0.008735     0.998360     0.119914     -0.016796    0.992642    
-0.004965    0.014993     0.999875     0.056844     0.146479     0.987579    
0.087468     -0.109730    0.990105     0.173074     0.056388     0.983293    
0.026873     -0.000237    0.999639     0.037919     -0.025281    0.998961    
-0.017270    0.005479     0.999836     -0.009313    0.000565     0.999956    
-0.020446    -0.026521    0.999439     -0.094449    -0.053712    0.994080    
0.009706     0.001470     0.999952     -0.032161    0.059574     0.997706    
-0.040987    0.020294     0.998954     0.141555     0.118419     0.982822    
-0.009676    -0.041876    0.999076     0.020511     -0.006213    0.999770    
0.006595     -0.007854    0.999947     -0.103058    0.088799     0.990704    
-0.021188    -0.022443    0.999523     0.079432     -0.346581    0.934651    
0.061907     0.113641     0.991591     -0.005725    0.051692     0.998647    
0.012948     0.027950     0.999525     0.120302     0.046102     0.991666    
-0.004358    0.000275     0.999990     0.001706     0.009996     0.999949    
0.002361     -0.083188    0.996531     0.094019     -0.187142    0.977823    
-0.005408    -0.015849    0.999860     -0.096393    0.094277     0.990869    
-0.052853    0.026573     0.998249     -0.064900    -0.038764    0.997139    
0.003436     -0.012671    0.999914     0.027081     -0.064238    0.997567    
0.001442     -0.008119    0.999966     -0.011930    -0.040346    0.999115    
-0.055274    0.000585     0.998471     -0.064563    0.029569     0.997475    
-0.005977    -0.007561    0.999954     0.004156     0.003586     0.999985    
0.101442     -0.002879    0.994837     -0.002501    -0.000746    0.999997    
0.032333     0.001252     0.999476     -0.049178    -0.003002    0.998786    
-0.055187    -0.010927    0.998416     -0.065173    -0.003535    0.997868    
0.050573     0.000780     0.998720     -0.014288    0.009365     0.999854    
0.011185     0.005283     0.999923     0.013570     0.009979     0.999858    
0.011617     0.000325     0.999932     -0.002423    -0.026791    0.999638    
-0.070758    0.020768     0.997277     -0.166219    0.242308     0.955855    
-0.001250    0.009702     0.999952     0.134689     0.169514     0.976281    
0.039943     0.027423     0.998826     0.018169     0.052855     0.998437    
0.025488     -0.011357    0.999611     -0.039681    0.017936     0.999051    
0.121763     -0.015429    0.992439     0.187746     -0.044023    0.981230    
-0.013639    0.002143     0.999905     -0.020945    -0.072391    0.997156    
0.016032     -0.027276    0.999499     0.123186     0.047979     0.991223    
0.019575     0.018822     0.999631     0.061146     -0.037259    0.997433    
-0.047937    -0.007419    0.998823     -0.007367    -0.000709    0.999973    
0.033523     0.014609     0.999331     0.008349     0.030568     0.999498    
-0.013109    0.055754     0.998358     -0.042560    -0.001967    0.999092    
-0.006529    -0.003052    0.999974     -0.012217    0.020646     0.999712    
-0.036308    0.028492     0.998934     -0.040749    0.051470     0.997843    
0.032221     -0.036070    0.998830     -0.011821    0.026581     0.999577    
-0.038606    0.015347     0.999137     -0.014128    0.008599     0.999863    
0.019755     -0.071435    0.997250     0.136185     0.461786     0.876474    
0.019072     0.002511     0.999815     -0.011665    0.016703     0.999792    
0.014879     -0.084189    0.996339     -0.048406    -0.894134    -0.445176   
-0.007101    -0.023536    0.999698     0.069679     0.050334     0.996299    
-0.035684    -0.001734    0.999362     0.087876     -0.107120    0.990355    
-0.000640    -0.008229    0.999966     -0.039188    -0.010613    0.999175    
0.002913     0.038142     0.999268     -0.020088    -0.058736    0.998071    
-0.045751    0.000702     0.998953     -0.078398    0.032767     0.996384    
-0.004675    0.011173     0.999927     0.003880     0.001656     0.999991    
0.064339     0.053763     0.996479     0.401462     0.361226     0.841632    
0.066205     0.098263     0.992956     0.165032     0.086615     0.982478    
-0.010468    0.000034     0.999945     -0.094827    0.040376     0.994675    
0.077672     0.013881     0.996882     0.042418     0.018335     0.998932    
0.050932     0.045079     0.997684     0.047962     0.047449     0.997722    
-0.008015    -0.045336    0.998940     0.002719     -0.049546    0.998768    
0.045391     0.054187     0.997499     -0.052990    0.102878     0.993282    
0.009000     0.016248     0.999828     -0.200093    -0.106391    0.973983    
-0.014585    -0.004498    0.999884     -0.021434    -0.018115    0.999606    
-0.010610    0.018498     0.999773     0.018005     -0.032962    0.999294    
0.008663     0.006895     0.999939     0.021174     0.003857     0.999768    
0.040042     0.038144     0.998470     0.009588     0.067488     0.997674    
0.093541     0.066472     0.993394     -0.003310    0.058209     0.998299    
0.015905     0.017257     0.999725     -0.010297    0.013327     0.999858    
0.008836     -0.008480    0.999925     0.005690     0.002107     0.999982    
-0.005516    -0.008222    0.999951     0.024774     0.013600     0.999601    
0.030194     -0.006904    0.999520     0.038790     -0.017350    0.999097    
0.013757     0.009169     0.999863     0.121140     -0.009124    0.992594    
-0.087696    0.023107     0.995879     -0.017864    0.103231     0.994497    
0.073065     -0.021534    0.997095     0.088387     -0.033193    0.995533    
-0.080546    -0.082423    0.993337     -0.061158    -0.110054    0.992042    
0.001103     -0.008471    0.999964     0.084918     0.109655     0.990336    
0.001361     0.012922     0.999916     -0.114707    0.150042     0.982003    
0.009949     0.021635     0.999716     -0.265151    0.198973     0.943454    
-0.000019    0.008507     0.999964     0.000437     -0.018545    0.999828    
0.003437     -0.009979    0.999944     0.040156     -0.013791    0.999098    
-0.011402    0.009906     0.999886     -0.024844    0.012610     0.999612    
-0.017800    0.000563     0.999841     -0.020217    0.008271     0.999761    
0.040534     -0.005775    0.999161     0.036202     0.039647     0.998558    
0.017886     -0.000440    0.999840     -0.103740    0.032829     0.994063    
-0.027871    0.115568     0.992909     -0.066572    -0.061414    0.995890    
0.003541     0.052336     0.998623     0.033656     -0.027707    0.999049    
0.000217     0.003695     0.999993     0.002816     0.021300     0.999769    
0.004664     -0.028620    0.999579     0.029261     -0.165266    0.985815    
-0.031958    0.007935     0.999458     0.023420     -0.025199    0.999408    
-0.007267    0.013152     0.999887     -0.001444    -0.011806    0.999929    
0.002384     0.001392     0.999996     -0.012251    -0.018409    0.999755    
-0.047201    0.120652     0.991572     -0.808067    -0.463388    -0.363731   
-0.013456    0.007882     0.999878     -0.042544    0.066330     0.996890    
0.010032     0.014816     0.999840     0.033148     -0.053726    0.998005    
-0.009759    -0.004975    0.999940     0.085511     -0.008275    0.996303    
0.087740     0.037275     0.995446     0.158066     -0.004818    0.987417    
0.023770     -0.004432    0.999708     0.087733     0.058035     0.994452    
-0.000946    0.036536     0.999332     -0.015065    0.011083     0.999825    
0.007847     -0.031269    0.999480     -0.176101    0.016300     0.984237    
-0.007455    0.013057     0.999887     -0.020194    0.008474     0.999760    
-0.012133    -0.007339    0.999899     -0.022840    -0.017811    0.999581    
-0.007996    0.012834     0.999886     0.031907     -0.013640    0.999398    
-0.009320    0.025493     0.999632     0.067290     0.211742     0.975006    
0.006026     -0.002047    0.999980     0.011823     -0.003556    0.999924    
-0.038150    -0.041367    0.998415     -0.008843    -0.003468    0.999955    
-0.007108    -0.019298    0.999789     -0.007774    -0.031839    0.999463    
0.032318     -0.114571    0.992889     0.135244     -0.040321    0.989992    
0.026814     -0.011071    0.999579     0.017650     -0.001625    0.999843    
-0.000011    -0.019558    0.999809     -0.019342    -0.061693    0.997908    
-0.027145    -0.005035    0.999619     -0.038365    0.013196     0.999177    
-0.055594    0.021693     0.998218     -0.159581    0.042409     0.986273    
-0.008699    0.027814     0.999575     0.022385     -0.020817    0.999533    
0.062224     0.030558     0.997594     0.025774     0.064259     0.997600    
0.014543     -0.008325    0.999860     -0.010422    -0.001049    0.999945    
0.016907     0.013555     0.999765     0.008925     0.015699     0.999837    
0.023238     0.077895     0.996691     0.398755     -0.204045    0.894069    
0.123893     0.001719     0.992294     -0.014840    0.093047     0.995551    
-0.064920    -0.054104    0.996423     -0.115949    -0.066612    0.991019    
-0.002405    0.013802     0.999902     -0.000672    0.006232     0.999980    
-0.014396    0.014656     0.999789     -0.000980    0.005068     0.999987    
0.004160     0.002117     0.999989     -0.016388    0.082384     0.996466    
-0.030739    0.044825     0.998522     0.061665     0.018493     0.997926    
-0.008247    -0.001677    0.999965     -0.007419    0.000409     0.999972    
0.011966     -0.085290    0.996284     0.066272     -0.081436    0.994473    
0.011445     0.029996     0.999484     0.145717     0.179465     0.972913    
0.024254     0.014110     0.999606     0.031289     0.058758     0.997782    
0.004636     -0.070108    0.997529     0.033809     0.018219     0.999262    
-0.014537    -0.033108    0.999346     0.034488     -0.009589    0.999359    
0.026801     0.003349     0.999635     0.041083     0.020385     0.998948    
-0.019102    0.000700     0.999817     -0.022337    0.002786     0.999747    
-0.004325    0.020969     0.999771     -0.007881    0.057527     0.998313    
-0.040422    -0.064018    0.997130     -0.272164    -0.261896    0.925925    
-0.100060    -0.078298    0.991896     -0.264217    0.308982     0.913630    
-0.066138    -0.120909    0.990458     -0.022829    -0.209868    0.977463    
-0.063147    0.046076     0.996940     -0.046715    -0.167836    0.984707    
-0.000815    -0.012674    0.999919     -0.023897    0.001902     0.999713    
-0.014611    -0.023507    0.999617     0.000405     0.004341     0.999990    
-0.035936    -0.040841    0.998519     0.024233     -0.015030    0.999593    
-0.019726    -0.005147    0.999792     -0.028439    -0.013467    0.999505    
-0.015820    -0.044797    0.998871     -0.027531    0.006046     0.999603    
-0.037190    0.005670     0.999292     -0.056377    0.002060     0.998407    
-0.002581    0.007644     0.999967     0.002995     0.027545     0.999616    
0.015508     0.004168     0.999871     0.005678     0.004162     0.999975    
-0.053857    -0.042650    0.997637     -0.102651    0.147413     0.983734    
-0.028662    -0.026824    0.999229     0.017331     -0.057585    0.998190    
0.040667     0.017530     0.999019     0.012026     0.027939     0.999537    
-0.087654    -0.032214    0.995630     -0.071130    -0.000253    0.997467    
0.031256     -0.049040    0.998308     -0.002290    -0.082802    0.996563    
0.003030     -0.000921    0.999995     -0.000837    0.007127     0.999974    
-0.005557    -0.015888    0.999858     -0.030935    0.113673     0.993037    
0.071668     0.000679     0.997428     -0.120217    0.362891     0.924044    
0.007188     0.014419     0.999870     0.011167     0.051502     0.998610    
0.019321     -0.020704    0.999599     0.027581     -0.024366    0.999323    
0.031429     0.030255     0.999048     0.076337     0.064560     0.994990    
-0.004166    0.055323     0.998460     -0.054580    0.007134     0.998484    
-0.060995    -0.001930    0.998136     -0.064421    0.044237     0.996942    
-0.001021    0.006344     0.999979     0.002956     0.014996     0.999883    
0.027296     0.010947     0.999567     0.047521     0.005553     0.998855    
-0.028277    -0.012428    0.999523     -0.045527    0.003675     0.998956    
-0.005856    -0.065063    0.997864     -0.001858    -0.238081    0.971244    
0.006413     -0.027121    0.999612     -0.014023    -0.071436    0.997347    
0.003540     -0.033495    0.999433     0.041066     -0.046008    0.998097    
-0.005016    0.015396     0.999869     0.009104     0.081935     0.996596    
-0.007260    0.031341     0.999482     -0.866580    0.085906     0.491589    
-0.026773    0.017371     0.999491     0.012862     -0.009239    0.999875    
-0.030386    0.006155     0.999519     -0.069134    0.010885     0.997548    
-0.067922    -0.075334    0.994842     -0.294760    -0.057726    0.953826    
0.018615     0.009113     0.999785     -0.021533    0.016307     0.999635    
0.003539     0.027364     0.999619     0.037502     0.127692     0.991105    
-0.042146    0.000594     0.999111     -0.089991    -0.016738    0.995802    
-0.004420    0.006306     0.999970     -0.018586    0.009339     0.999784    
-0.018788    -0.008527    0.999787     -0.021525    0.053482     0.998337    
0.020209     0.017097     0.999650     -0.009323    -0.015811    0.999832    
0.024648     -0.038374    0.998959     0.065467     0.070308     0.995375    
-0.017276    -0.003870    0.999843     -0.037885    -0.023228    0.999012    
-0.036510    -0.029735    0.998891     -0.117185    -0.061412    0.991210    
-0.044710    0.119701     0.991803     -0.107299    0.578626     0.808504    
-0.001397    0.009916     0.999950     -0.009765    0.015296     0.999835    
0.011803     0.042258     0.999037     -0.048660    0.111898     0.992528    
-0.003952    0.015593     0.999871     -0.007422    0.004881     0.999961    
-0.033206    0.008531     0.999412     0.155384     0.119622     0.980585    
-0.003861    -0.017971    0.999831     -0.089945    -0.052709    0.994551    
0.037387     0.064696     0.997204     -0.641696    0.011364     0.766875    
-0.008249    0.001739     0.999964     0.004892     -0.005312    0.999974    
0.041743     0.069489     0.996709     0.234666     0.170297     0.957043    
-0.044772    0.019765     0.998802     -0.245708    0.099081     0.964267    
-0.012497    -0.004563    0.999912     -0.012400    0.004750     0.999912    
-0.007971    -0.003618    0.999962     -0.010880    0.014615     0.999834    
-0.004016    -0.010524    0.999937     -0.050603    0.003708     0.998712    
0.018569     0.006225     0.999808     0.018423     0.004881     0.999818    
-0.066612    0.078954     0.994650     0.137910     0.235227     0.962106    
-0.027340    0.014335     0.999523     -0.047802    0.025360     0.998535    
