0.016382     -0.024456    0.999567     0.052750     0.019229     0.998423    
-0.018512    -0.000645    0.999828     -0.048143    -0.002821    0.998837    
-0.017465    -0.007846    0.999817     -0.006362    -0.019175    0.999796    
0.040742     0.025499     0.998844     -0.105096    -0.034194    0.993874    
0.059172     -0.024374    0.997950     0.050770     -0.017575    0.998556    
0.004443     0.008697     0.999952     -0.012481    0.023012     0.999657    
0.012308     -0.038604    0.999179     -0.033431    -0.090604    0.995326    
0.067773     -0.108728    0.991759     0.090027     -0.387760    0.917353    
0.003696     0.020158     0.999790     -0.001878    0.010253     0.999946    
-0.033191    -0.011171    0.999387     -0.225393    -0.058048    0.972537    
0.003895     -0.006991    0.999968     0.002487     -0.026722    0.999640    
-0.103221    0.067618     0.992357     -0.105131    0.139073     0.984686    
-0.039089    -0.011108    0.999174     -0.044547    0.001735     0.999006    
-0.005806    0.017208     0.999835     0.002277     -0.009207    0.999955    
0.029751     0.002229     0.999555     -0.053480    0.001649     0.998568    
-0.016286    0.019364     0.999680     -0.067652    0.068212     0.995374    
-0.021170    -0.004999    0.999763     -0.107395    -0.055132    0.992687    
0.007328     0.017200     0.999825     0.061096     0.023869     0.997846    
0.000989     0.009006     0.999959     -0.082233    0.005598     0.996597    
0.010568     0.049334     0.998726     -0.005084    0.025455     0.999663    
0.008264     0.013963     0.999868     0.050403     0.063730     0.996693    
-0.014292    -0.015668    0.999775     -0.044585    0.009133     0.998964    
-0.001953    -0.010955    0.999938     0.012537     -0.026620    0.999567    
0.082059     0.020932     0.996408     0.034291     0.004137     0.999403    
-0.054827    -0.000899    0.998495     -0.196198    0.118543     0.973372    
0.051169     -0.021784    0.998452     0.026064     -0.111057    0.993472    
-0.024302    0.004867     0.999693     -0.097272    0.060598     0.993411    
-0.033032    -0.019346    0.999267     -0.117073    0.033251     0.992567    
0.010374     -0.045443    0.998913     0.013099     -0.061430    0.998025    
0.005784     0.004820     0.999972     -0.001517    -0.001407    0.999998    
0.000313     0.028507     0.999594     -0.117811    -0.041918    0.992151    
0.036732     0.000422     0.999325     0.039212     -0.037337    0.998533    
0.055106     -0.004046    0.998472     0.101098     -0.045276    0.993846    
-0.002485    0.015931     0.999870     -0.002315    -0.002017    0.999995    
0.066849     0.022286     0.997514     -0.042280    -0.113148    0.992678    
0.000194     0.039465     0.999221     0.028171     -0.094046    0.995169    
-0.055985    -0.006647    0.998409     0.036273     0.330651     0.943056    
-0.010510    -0.004216    0.999936     -0.003025    -0.032566    0.999465    
0.009301     -0.030854    0.999481     0.056569     0.060468     0.996566    
-0.018161    0.004918     0.999823     -0.028159    0.006663     0.999581    
-0.044761    0.133320     0.990062     0.213008     0.332186     0.918847    
-0.022245    0.108727     0.993823     -0.063566    0.197990     0.978141    
-0.001987    0.073786     0.997272     -0.037804    0.130055     0.990786    
0.021918     0.043273     0.998823     -0.002301    0.010340     0.999944    
-0.023993    0.007002     0.999688     -0.020521    0.035458     0.999160    
-0.000754    0.003519     0.999994     -0.007738    0.000228     0.999970    
0.033690     -0.011607    0.999365     0.017638     0.016730     0.999704    
-0.012636    -0.019675    0.999727     -0.024464    -0.007340    0.999674    
0.014552     -0.038323    0.999159     -0.029845    -0.029206    0.999128    
0.002637     -0.006988    0.999972     0.018837     -0.035783    0.999182    
0.004656     -0.006236    0.999970     -0.006160    -0.009830    0.999933    
0.049379     -0.099511    0.993810     0.034677     -0.147370    0.988473    
-0.066936    -0.008303    0.997723     0.071738     -0.140859    0.987427    
-0.002368    0.016451     0.999862     -0.072079    -0.025339    0.997077    
-0.038597    -0.010268    0.999202     0.011257     0.036767     0.999260    
0.110007     -0.117978    0.986904     0.097215     -0.306841    0.946783    
-0.104843    -0.045947    0.993427     0.182907     0.148679     0.971823    
0.013112     0.001880     0.999912     0.137951     -0.053982    0.988967    
0.007326     -0.017882    0.999813     -0.067423    -0.045454    0.996688    
-0.014320    0.010073     0.999847     -0.007839    0.016481     0.999833    
-0.104816    0.036815     0.993810     -0.105089    -0.087645    0.990593    
-0.073213    -0.031475    0.996820     -0.129252    -0.227988    0.965047    
0.036704     0.027132     0.998958     0.018795     0.055973     0.998255    
-0.018073    -0.088343    0.995926     -0.168446    -0.061977    0.983761    
0.007432     0.096434     0.995312     -0.038834    0.064658     0.997152    
0.015860     0.031303     0.999384     -0.004561    -0.110060    0.993914    
0.003978     -0.003573    0.999986     0.002413     0.012363     0.999921    
0.046560     0.002126     0.998913     0.027481     -0.022804    0.999362    
0.097680     -0.092723    0.990889     -0.391924    -0.318283    0.863187    
0.036947     0.010931     0.999257     0.200881     -0.145295    0.968781    
0.035401     -0.093430    0.994996     -0.081227    -0.091383    0.992498    
0.021684     -0.007456    0.999737     0.060845     0.000135     0.998147    
-0.050074    -0.071487    0.996184     -0.081743    -0.099512    0.991673    
0.000787     0.003555     0.999993     -0.002334    -0.012942    0.999913    
0.009510     0.043863     0.998992     -0.023110    0.138375     0.990110    
-0.037051    0.004964     0.999301     0.078396     0.009671     0.996875    
0.015292     0.006930     0.999859     -0.193475    0.236604     0.952148    
-0.014329    0.029210     0.999471     0.004397     0.025686     0.999660    
-0.021688    -0.026388    0.999417     -0.032541    0.098803     0.994575    
-0.000797    0.050536     0.998722     -0.050183    -0.160521    0.985756    
0.100331     0.041062     0.994106     -0.733389    -0.310476    0.604768    
0.003902     0.005249     0.999979     -0.005321    0.013125     0.999900    
0.019952     -0.026575    0.999448     0.035738     -0.031240    0.998873    
-0.016485    -0.078304    0.996793     0.023518     0.068122     0.997400    
-0.012332    0.015678     0.999801     -0.035677    -0.001693    0.999362    
0.003998     -0.023601    0.999713     -0.000303    -0.028501    0.999594    
0.005000     -0.000261    0.999987     0.004822     0.001310     0.999988    
-0.003471    0.009006     0.999953     0.103631     0.078551     0.991509    
0.010688     -0.021709    0.999707     0.069937     0.005850     0.997534    
-0.066167    -0.090147    0.993728     0.087705     -0.015332    0.996029    
-0.032499    0.006381     0.999451     -0.005894    0.150233     0.988633    
-0.053872    0.059095     0.996798     -0.025971    -0.078962    0.996539    
-0.034938    0.030600     0.998921     -0.052541    0.201127     0.978155    
0.084717     0.009036     0.996364     0.092111     0.081157     0.992436    
-0.068352    -0.083520    0.994159     -0.011847    -0.004431    0.999920    
0.069874     0.030942     0.997076     0.121653     0.096921     0.987829    
0.017884     -0.002974    0.999836     0.044155     0.000090     0.999025    
0.040826     0.030074     0.998714     0.110751     0.062544     0.991878    
-0.007408    -0.036565    0.999304     -0.016382    -0.019315    0.999679    
0.059390     0.055131     0.996711     0.325588     0.098553     0.940361    
0.030047     -0.051123    0.998240     0.084624     -0.061202    0.994532    
0.013707     0.034142     0.999323     0.012168     0.017268     0.999777    
-0.045405    0.033125     0.998419     -0.060579    0.039552     0.997379    
0.056513     0.051640     0.997066     0.081670     0.466322     0.880837    
-0.051540    0.003832     0.998664     0.007020     0.106944     0.994240    
0.012300     0.002301     0.999922     -0.022196    0.013304     0.999665    
0.077143     -0.029510    0.996583     0.148269     0.041773     0.988064    
0.011225     0.028597     0.999528     -0.009890    0.029933     0.999503    
-0.005243    -0.083654    0.996481     -0.271779    -0.583950    0.764943    
-0.009155    -0.022472    0.999705     0.597876     0.145614     0.788252    
-0.029997    0.004360     0.999541     -0.024302    0.011959     0.999633    
0.063260     -0.001962    0.997995     0.075125     0.000034     0.997174    
0.029243     0.016170     0.999442     -0.672380    -0.513107    0.533504    
0.022244     0.000645     0.999752     0.030618     -0.025056    0.999217    
0.031246     0.003324     0.999506     0.053426     -0.027707    0.998187    
-0.017254    0.000544     0.999851     -0.004290    0.029204     0.999564    
-0.012339    -0.031175    0.999438     -0.034559    -0.025237    0.999084    
-0.016563    0.045680     0.998819     0.036497     0.078404     0.996253    
0.004888     0.005750     0.999972     0.010943     0.012321     0.999864    
0.012557     -0.021745    0.999685     0.034813     -0.030222    0.998937    
-0.055837    0.062630     0.996474     0.135987     -0.143487    0.980265    
0.044410     -0.013409    0.998923     0.223669     0.281716     0.933064    
-0.020070    -0.022529    0.999545     -0.027334    -0.073641    0.996910    
-0.044659    0.045324     0.997974     0.032555     0.055666     0.997919    
-0.019196    0.082411     0.996414     -0.006320    0.117264     0.993081    
-0.000021    -0.040362    0.999185     -0.052390    -0.013902    0.998530    
-0.013420    0.099733     0.994924     0.042084     0.059166     0.997361    
-0.021854    -0.006370    0.999741     -0.081844    0.064001     0.994588    
-0.007865    -0.006584    0.999947     -0.051615    -0.030025    0.998216    
-0.007337    0.000406     0.999973     0.002396     0.022635     0.999741    
-0.000581    -0.016741    0.999860     0.015253     -0.037651    0.999175    
-0.025010    0.013387     0.999598     -0.028691    0.015477     0.999468    
0.240507     -0.155063    0.958182     -0.032306    -0.524862    0.850574    
-0.034030    -0.001438    0.999420     0.015349     0.006509     0.999861    
0.004008     0.004354     0.999983     0.009137     -0.029880    0.999512    
-0.008012    -0.048226    0.998804     -0.080913    -0.030114    0.996266    
-0.021552    0.003339     0.999762     -0.016128    -0.001282    0.999869    
0.002354     0.001126     0.999997     -0.005031    0.008282     0.999953    
-0.004437    -0.011230    0.999927     0.007658     -0.014297    0.999868    
-0.008434    -0.036517    0.999297     -0.498221    -0.541686    0.677018    
-0.171200    0.045633     0.984179     -0.389142    -0.016433    0.921031    
0.010819     0.007641     0.999912     0.157611     0.021158     0.987275    
-0.007331    -0.040985    0.999133     -0.020981    -0.038343    0.999044    
0.134987     0.114621     0.984195     0.206730     0.265622     0.941651    
-0.009004    0.019855     0.999762     -0.071337    0.042019     0.996567    
0.009988     0.037725     0.999238     0.055692     0.063357     0.996436    
0.013618     -0.022473    0.999655     0.065732     -0.106416    0.992147    
-0.023315    -0.017615    0.999573     -0.025222    0.039483     0.998902    
0.108617     0.014929     0.993972     0.016663     -0.455061    0.890304    
0.010128     -0.009669    0.999902     0.043871     -0.037701    0.998326    
-0.044916    0.063844     0.996949     0.024001     0.166640     0.985726    
-0.004700    0.012985     0.999905     0.066819     0.107446     0.991963    
-0.009912    0.060110     0.998143     -0.013396    0.040138     0.999104    
-0.013292    -0.008616    0.999875     -0.013849    -0.026110    0.999563    
-0.006865    -0.007202    0.999950     0.011749     -0.014988    0.999819    
0.000811     -0.226921    0.973913     0.473465     -0.390153    0.789691    
0.046107     -0.032070    0.998422     -0.038461    0.000914     0.999260    
0.000087     -0.059615    0.998221     -0.037210    -0.012129    0.999234    
-0.004930    -0.005341    0.999974     0.083603     0.047844     0.995350    
0.034321     -0.048464    0.998235     0.025792     -0.023545    0.999390    
-0.000848    0.003284     0.999994     0.076449     0.097915     0.992254    
0.018383     0.008733     0.999793     -0.000111    0.049088     0.998794    
-0.053622    -0.049347    0.997341     0.167940     0.380185     0.909536    
-0.001211    -0.012108    0.999926     0.027046     0.000365     0.999634    
0.007189     0.022708     0.999716     -0.013995    0.000850     0.999902    
-0.017223    -0.001890    0.999850     -0.007166    -0.005859    0.999957    
0.029569     0.017201     0.999415     -0.021122    -0.130757    0.991189    
-0.005475    0.006478     0.999964     0.004287     0.013890     0.999894    
0.025596     0.013459     0.999582     0.033084     0.045125     0.998433    
0.023845     -0.002296    0.999713     0.062979     -0.012324    0.997939    
0.001394     0.009644     0.999953     0.018592     0.017497     0.999674    
0.000223     -0.001213    0.999999     0.006352     0.047735     0.998840    
-0.149321    0.027522     0.988406     -0.283096    0.032715     0.958533    
-0.004393    -0.004190    0.999982     -0.004350    -0.007159    0.999965    
0.018702     -0.130074    0.991328     0.108134     -0.210858    0.971517    
0.025493     0.000117     0.999675     0.037840     -0.007513    0.999256    
0.034494     -0.037944    0.998684     0.182685     -0.141442    0.972944    
-0.003785    0.019925     0.999794     -0.032326    0.046054     0.998416    
-0.024915    0.062121     0.997758     -0.046550    0.146647     0.988093    
-0.004447    -0.007304    0.999964     0.005146     -0.011429    0.999921    
0.050373     -0.000301    0.998730     0.003491     0.008475     0.999958    
-0.020778    -0.001210    0.999783     -0.016621    0.018593     0.999689    
-0.084602    0.027429     0.996037     -0.123806    -0.092727    0.987964    
-0.045515    -0.030391    0.998501     -0.118489    -0.054142    0.991478    
-0.048995    -0.004418    0.998789     -0.019939    0.002013     0.999799    
0.004827     -0.004432    0.999979     -0.026797    -0.043420    0.998697    
-0.043336    0.001020     0.999060     -0.141376    -0.007932    0.989924    
0.012606     0.011111     0.999859     0.027786     0.004972     0.999602    
-0.057531    0.226678     0.972269     0.216346     -0.027456    0.975931    
0.006733     -0.003564    0.999971     0.001386     -0.004529    0.999989    
0.012175     -0.010142    0.999874     0.024515     -0.014903    0.999588    
-0.011223    0.069687     0.997506     -0.093272    0.011696     0.995572    
0.017704     -0.012790    0.999762     0.646627     0.049844     0.761176    
-0.033900    -0.149526    0.988177     -0.009777    -0.148536    0.988859    
0.002508     -0.003223    0.999992     0.095066     0.052499     0.994086    
-0.003293    0.028740     0.999581     -0.027698    0.071187     0.997078    
0.011599     -0.038930    0.999175     0.002640     -0.028494    0.999590    
0.007141     0.030737     0.999502     -0.036823    0.049213     0.998109    
-0.025155    -0.005799    0.999667     -0.018737    0.001385     0.999824    
-0.012727    0.009407     0.999875     -0.002530    0.018732     0.999821    
0.064463     0.023850     0.997635     0.090436     0.014236     0.995800    
-0.020446    -0.032603    0.999259     -0.064420    -0.041718    0.997051    
0.031429     0.030068     0.999054     0.196180     0.018744     0.980389    
0.047701     0.056319     0.997273     0.049552     0.043475     0.997825    
-0.089661    -0.036311    0.995310     -0.087783    -0.208301    0.974117    
-0.020587    0.058734     0.998061     0.025741     0.139085     0.989946    
0.004717     -0.024014    0.999700     -0.074611    -0.001366    0.997212    
0.004552     0.017795     0.999831     0.013577     0.003849     0.999900    
-0.011398    -0.013434    0.999845     -0.030844    -0.037767    0.998810    
-0.005059    0.066990     0.997741     0.040170     0.227509     0.972947    
0.004141     0.015015     0.999879     0.033677     0.047450     0.998306    
0.021253     0.012773     0.999693     0.020541     0.010246     0.999737    
-0.003138    0.016119     0.999865     -0.004988    0.033712     0.999419    
-0.079207    -0.103699    0.991450     0.007385     -0.122751    0.992410    
-0.028512    -0.009518    0.999548     -0.050048    -0.009227    0.998704    
0.086829     0.085276     0.992567     -0.058797    -0.011994    0.998198    
-0.035045    0.025100     0.999070     0.005268     0.129492     0.991567    
-0.005599    0.033865     0.999411     -0.009349    0.027819     0.999569    
-0.058499    -0.157252    0.985824     -0.104187    -0.099801    0.989538    
0.011083     -0.003374    0.999933     0.011493     0.002511     0.999931    
-0.006765    0.005178     0.999964     0.015362     0.041239     0.999031    
-0.016418    -0.006700    0.999843     -0.016446    -0.020795    0.999649    
0.061247     0.047062     0.997012     0.090532     -0.181245    0.979262    
0.032163     -0.013995    0.999385     0.021619     -0.013670    0.999673    
0.015686     -0.019485    0.999687     0.136975     0.070843     0.988038    
0.023777     -0.058419    0.998009     -0.472387    -0.274492    0.837559    
0.024134     -0.036354    0.999048     -0.009084    -0.019045    0.999777    
-0.007081    0.012672     0.999895     -0.008757    -0.000504    0.999962    
-0.060793    -0.005791    0.998134     0.002465     0.017771     0.999839    
0.058578     0.007195     0.998257     0.093647     -0.059109    0.993849    
0.004094     0.017366     0.999841     -0.017076    0.022178     0.999608    
-0.004635    0.011595     0.999922     -0.056038    0.032971     0.997884    
0.041129     -0.012473    0.999076     0.056008     -0.012084    0.998357    
0.017730     -0.020957    0.999623     0.048023     -0.021835    0.998608    
0.085647     -0.030900    0.995846     -0.389844    -0.073895    0.917911    
-0.010789    -0.037272    0.999247     0.016496     0.047044     0.998757    
0.005401     0.008128     0.999952     0.004351     0.003318     0.999985    
0.056953     -0.141774    0.988259     0.046773     -0.130328    0.990367    
-0.029840    -0.016540    0.999418     -0.030664    -0.022215    0.999283    
-0.014865    0.008251     0.999855     -0.072038    -0.125515    0.989473    
-0.031059    0.032021     0.999005     -0.064824    0.065570     0.995740    
-0.009585    -0.068092    0.997633     -0.019857    -0.035323    0.999179    
-0.032198    0.045234     0.998457     -0.105395    0.147936     0.983365    
-0.027918    -0.009048    0.999569     0.069551     -0.182769    0.980693    
-0.050399    -0.077742    0.995699     -0.080138    -0.070579    0.994282    
-0.030175    0.041612     0.998678     -0.359245    -0.493663    0.791985    
0.003293     -0.041215    0.999145     -0.049509    -0.013011    0.998689    
0.029185     -0.008445    0.999538     -0.013950    -0.012275    0.999827    
-0.011074    0.097497     0.995174     -0.071536    0.101865     0.992223    
0.008172     -0.006042    0.999948     0.014539     -0.015394    0.999776    
-0.008147    -0.020321    0.999760     0.040696     0.010339     0.999118    
-0.001776    0.017834     0.999839     -0.034673    0.018448     0.999228    
-0.014298    0.117707     0.992945     -0.489808    -0.233285    0.840039    
0.020528     -0.013246    0.999702     0.027302     0.020991     0.999407    
-0.021427    0.065173     0.997644     -0.020593    0.012373     0.999711    
0.077210     -0.000261    0.997015     0.063875     -0.010899    0.997898    
-0.066908    -0.023493    0.997483     -0.032209    -0.030173    0.999026    
0.004167     -0.029620    0.999553     0.010141     -0.040831    0.999115    
0.074511     0.065510     0.995066     0.073760     0.072422     0.994643    
-0.005081    0.063297     0.997982     0.046186     0.038517     0.998190    
-0.020621    -0.063811    0.997749     0.016128     -0.048154    0.998710    
-0.040709    -0.017482    0.999018     -0.091564    -0.060492    0.993960    
-0.014420    -0.016205    0.999765     0.005272     -0.111573    0.993742    
-0.043185    0.038691     0.998318     -0.002587    0.087917     0.996124    
0.008937     0.023262     0.999689     0.008395     0.009327     0.999921    
-0.037140    -0.082055    0.995936     -0.019397    0.009436     0.999767    
0.026551     -0.077895    0.996608     -0.248533    0.048743     0.967396    
-0.099883    0.022939     0.994735     -0.176169    0.039757     0.983557    
0.008742     0.039726     0.999172     -0.052811    -0.009683    0.998558    
-0.089486    0.085120     0.992344     -0.000353    0.380539     0.924765    
0.005741     -0.005370    0.999969     0.011992     0.025089     0.999613    
-0.003631    0.003356     0.999988     0.003615     0.005358     0.999979    
-0.027469    -0.004249    0.999614     -0.049970    0.024402     0.998453    
0.002178     -0.048845    0.998804     -0.220977    -0.013909    0.975180    
0.020965     -0.051927    0.998431     -0.086295    -0.088963    0.992290    
0.044624     -0.005187    0.998990     -0.093163    0.095754     0.991036    
0.091512     0.044824     0.994795     0.031561     -0.012013    0.999430    
-0.051506    -0.065619    0.996515     0.189127     -0.423568    0.885902    
-0.057702    -0.020461    0.998124     -0.040001    -0.066537    0.996982    
0.018991     -0.055582    0.998273     0.185454     -0.046111    0.981570    
-0.012300    -0.039776    0.999133     0.134207     0.076662     0.987984    
-0.005133    -0.031498    0.999491     -0.006470    -0.019378    0.999791    
-0.086200    0.010108     0.996227     -0.129481    -0.010751    0.991524    
0.103988     -0.063778    0.992532     -0.015598    -0.024423    0.999580    
0.011902     0.021983     0.999688     0.142112     0.029087     0.989423    
-0.011353    -0.047898    0.998788     -0.041747    -0.061856    0.997212    
-0.008478    0.060630     0.998124     -0.074341    0.006109     0.997214    
-0.004140    -0.011072    0.999930     -0.118665    -0.027577    0.992551    
-0.025021    -0.057888    0.998009     -0.252259    0.343158     0.904769    
-0.006797    0.029589     0.999539     0.041400     0.160898     0.986102    
0.044802     0.008548     0.998959     0.123538     -0.064167    0.990263    
0.023333     0.001102     0.999727     0.086822     0.006361     0.996204    
-0.032237    0.016070     0.999351     0.002215     0.029005     0.999577    
-0.013637    0.155772     0.987699     0.026362     0.238071     0.970890    
0.022735     0.016912     0.999598     0.106956     0.062577     0.992293    
0.015374     0.010617     0.999825     0.000157     -0.007168    0.999974    
-0.028060    0.007052     0.999581     0.015070     0.016884     0.999744    
0.034426     0.095032     0.994879     0.068967     0.119525     0.990433    
-0.055051    0.051274     0.997166     -0.087563    0.157089     0.983695    
0.002093     -0.017871    0.999838     -0.092648    0.040613     0.994870    
0.013718     -0.036098    0.999254     -0.021622    0.005900     0.999749    
0.015700     0.021527     0.999645     0.033950     0.016701     0.999284    
0.006681     0.027393     0.999602     0.037745     -0.010432    0.999233    
0.014339     0.004034     0.999889     0.023382     0.035184     0.999107    
-0.096556    -0.048812    0.994130     -0.155363    0.074613     0.985036    
-0.022076    0.137212     0.990296     -0.107155    0.077542     0.991214    
0.062398     0.023864     0.997766     0.016976     0.007231     0.999830    
-0.013007    0.020441     0.999706     -0.023263    0.031785     0.999224    
0.018715     0.000811     0.999825     -0.044360    -0.017290    0.998866    
-0.003762    -0.009871    0.999944     -0.056977    -0.009794    0.998328    
-0.004105    0.016354     0.999858     -0.018718    0.020947     0.999605    
0.045183     0.067807     0.996675     0.118841     0.040980     0.992067    
0.049147     -0.070223    0.996320     0.327377     -0.088146    0.940773    
0.025269     0.051878     0.998334     -0.004661    0.037784     0.999275    
0.006370     -0.010509    0.999924     0.008336     -0.023647    0.999686    
-0.027752    0.031658     0.999113     -0.123626    -0.050578    0.991039    
0.034800     -0.012379    0.999318     -0.044142    -0.242201    0.969221    
-0.019510    0.048065     0.998654     0.096991     0.036140     0.994629    
0.014837     0.004296     0.999881     0.025369     0.010797     0.999620    
-0.124980    -0.018218    0.991992     0.425070     -0.284948    0.859139    
0.002905     0.001012     0.999995     -0.020126    0.000187     0.999797    
0.007800     -0.027768    0.999584     0.021522     0.042340     0.998871    
0.019179     0.001563     0.999815     -0.045340    0.155766     0.986753    
-0.015573    0.012856     0.999796     -0.038811    0.038532     0.998503    
0.016009     0.001943     0.999870     0.077583     -0.040088    0.996180    
0.014040     -0.008085    0.999869     -0.012925    0.070431     0.997433    
-0.001266    -0.045407    0.998968     -0.119579    -0.066685    0.990583    
0.028931     0.056997     0.997955     -0.070929    0.031252     0.996992    
-0.011519    0.036656     0.999262     0.096598     0.039706     0.994531    
0.004211     -0.013285    0.999903     0.001526     0.046996     0.998894    
0.047912     -0.037500    0.998147     0.055427     -0.007364    0.998436    
0.010114     -0.074743    0.997151     -0.020220    -0.050678    0.998510    
0.002776     0.005744     0.999980     0.004894     0.009667     0.999941    
-0.025405    -0.014287    0.999575     -0.014259    -0.002737    0.999895    
-0.050185    -0.031224    0.998252     0.387189     0.004560     0.921989    
0.009301     -0.000076    0.999957     -0.011780    -0.018673    0.999756    
-0.015605    0.018989     0.999698     -0.016154    0.019381     0.999682    
-0.012569    -0.022329    0.999672     0.035794     -0.100617    0.994281    
0.084254     0.023290     0.996172     0.005092     0.098405     0.995133    
-0.009708    -0.039248    0.999182     -0.000376    -0.094829    0.995494    
-0.064388    0.004212     0.997916     0.007554     0.013913     0.999875    
0.010376     -0.010447    0.999892     0.003239     -0.041372    0.999139    
-0.017950    0.002813     0.999835     -0.028797    0.014374     0.999482    
-0.048962    0.011247     0.998737     0.092446     -0.035600    0.995081    
0.003683     -0.042899    0.999073     0.284134     -0.212349    0.934973    
0.021578     0.014762     0.999658     0.000355     0.045713     0.998955    
0.113683     -0.051073    0.992203     -0.019605    -0.037670    0.999098    
-0.020213    0.001935     0.999794     -0.064900    -0.027366    0.997516    
-0.034965    -0.081389    0.996069     -0.178769    0.342018     0.922532    
-0.055340    -0.026005    0.998129     -0.109829    0.026932     0.993586    
-0.047447    -0.033280    0.998319     -0.041137    0.082764     0.995720    
0.040087     0.059667     0.997413     0.138579     0.068529     0.987978    
0.033369     0.050288     0.998177     0.042702     -0.022237    0.998840    
0.011500     -0.033869    0.999360     0.038491     -0.095587    0.994677    
-0.019779    -0.035821    0.999162     0.092918     0.000771     0.995673    
0.008686     -0.000306    0.999962     -0.011352    0.002219     0.999933    
-0.006756    -0.006604    0.999955     -0.006428    -0.023487    0.999704    
0.016148     -0.000183    0.999870     0.029026     0.004240     0.999570    
-0.040223    -0.036417    0.998527     -0.081983    0.000393     0.996634    
0.014575     0.007062     0.999869     -0.034548    -0.022009    0.999161    
0.028268     -0.010089    0.999550     0.045462     0.068314     0.996627    
0.018843     0.002478     0.999819     -0.180888    0.091292     0.979258    
-0.012318    0.001607     0.999923     -0.021474    -0.036492    0.999103    
-0.052515    -0.040756    0.997788     -0.070024    0.007009     0.997521    
0.001451     -0.018468    0.999828     -0.003524    0.034865     0.999386    
-0.014282    -0.001960    0.999896     0.010884     -0.026063    0.999601    
-0.003732    0.001060     0.999993     -0.021357    -0.010468    0.999717    
-0.096978    -0.031177    0.994798     -0.151649    -0.036441    0.987762    
-0.026692    -0.010852    0.999585     -0.024463    -0.024219    0.999407    
0.011316     0.010570     0.999880     0.080277     -0.014744    0.996663    
-0.002733    0.055877     0.998434     -0.268652    0.194717     0.943351    
-0.048441    0.034580     0.998227     -0.046392    0.042339     0.998026    
-0.005093    -0.004176    0.999978     -0.008479    -0.003885    0.999956    
-0.010497    -0.014140    0.999845     0.006121     -0.006788    0.999958    
0.013865     -0.021345    0.999676     0.061206     -0.025764    0.997793    
-0.029676    -0.012009    0.999487     -0.059990    0.179616     0.981906    
-0.072353    -0.009531    0.997334     0.191100     -0.717055    0.670308    
-0.055968    -0.018759    0.998256     -0.043223    0.026000     0.998727    
0.013404     -0.000980    0.999910     0.006396     0.006669     0.999957    
-0.031593    -0.026298    0.999155     -0.070587    -0.075080    0.994676    
0.002097     0.000176     0.999998     0.016992     0.003868     0.999848    
-0.016960    -0.027145    0.999488     -0.034414    -0.068019    0.997090    
-0.042315    0.000834     0.999104     0.034516     0.032125     0.998888    
-0.001423    -0.005305    0.999985     0.030752     0.034153     0.998943    
-0.024585    -0.035148    0.999080     0.429459     -0.091439    0.898445    
-0.076794    0.025853     0.996712     -0.052898    0.038068     0.997874    
-0.059400    0.111892     0.991943     -0.343048    0.110627     0.932781    
-0.010088    0.006387     0.999929     -0.014652    -0.014513    0.999787    
-0.003512    0.004877     0.999982     -0.045416    -0.002047    0.998966    
0.112511     -0.093435    0.989248     0.212794     -0.087043    0.973212    
-0.032567    -0.037112    0.998780     -0.046718    -0.072018    0.996309    
-0.011135    -0.029669    0.999498     0.027291     -0.070975    0.997105    
-0.000029    -0.004220    0.999991     0.015757     0.064428     0.997798    
-0.006379    -0.006030    0.999961     -0.129389    -0.017261    0.991444    
-0.104163    0.086174     0.990820     0.012760     -0.064992    0.997804    
0.049319     0.005518     0.998768     0.056943     0.022517     0.998123    
-0.018130    0.012789     0.999754     0.038566     -0.005141    0.999243    
0.006328     -0.019365    0.999792     0.004394     -0.016807    0.999849    
-0.004243    0.008023     0.999959     0.007896     -0.008928    0.999929    
-0.114188    -0.070689    0.990941     -0.123965    0.015613     0.992164    
0.017120     -0.014670    0.999746     0.049392     -0.033950    0.998202    
0.005558     -0.001832    0.999983     -0.006960    -0.005499    0.999961    
-0.106172    -0.142793    0.984041     -0.066673    0.089826     0.993723    
-0.009282    -0.023079    0.999690     -0.036782    0.003277     0.999318    
-0.034410    -0.059743    0.997620     -0.094647    -0.112204    0.989167    
0.007815     -0.025675    0.999640     0.016356     -0.035350    0.999241    
0.007335     -0.009235    0.999930     0.010569     0.066397     0.997737    
0.015189     0.004203     0.999876     0.059427     0.149678     0.986947    
-0.063124    0.036219     0.997348     -0.033225    0.083992     0.995912    
0.002503     -0.012735    0.999916     -0.004511    0.001363     0.999989    
-0.001795    -0.006281    0.999979     -0.072999    -0.001037    0.997332    
-0.011121    -0.015044    0.999825     -0.032385    -0.087369    0.995649    
-0.025221    0.002374     0.999679     -0.025616    -0.014107    0.999572    
0.005061     0.039624     0.999202     -0.005661    0.023185     0.999715    
-0.117798    0.058068     0.991338     -0.141963    0.145783     0.979078    
0.000884     -0.014555    0.999894     -0.211343    -0.076711    0.974397    
-0.009087    -0.004388    0.999949     0.005261     -0.000606    0.999986    
0.036264     -0.056469    0.997745     -0.048157    0.020532     0.998629    
0.026306     -0.042927    0.998732     0.010717     -0.031856    0.999435    
-0.005551    0.008569     0.999948     -0.012809    0.005213     0.999904    
-0.006639    0.014729     0.999869     0.018543     -0.001562    0.999827    
0.023690     -0.022245    0.999472     0.031756     -0.084952    0.995879    
-0.020045    -0.021057    0.999577     -0.015916    -0.005500    0.999858    
-0.027207    -0.062600    0.997668     -0.047753    -0.110645    0.992712    
0.037436     -0.011796    0.999229     -0.360255    -0.053989    0.931290    
-0.035781    0.017111     0.999213     -0.065685    -0.017975    0.997678    
-0.107808    -0.040010    0.993366     -0.005256    -0.004077    0.999978    
-0.010110    0.002876     0.999945     0.047828     -0.041209    0.998005    
0.035937     -0.010112    0.999303     0.023331     -0.021731    0.999492    
-0.008629    -0.051272    0.998647     0.047980     -0.071221    0.996306    
-0.005149    -0.013038    0.999902     -0.014183    -0.000601    0.999899    
0.066971     0.017606     0.997600     0.037719     0.057501     0.997633    
0.001577     0.009446     0.999954     0.022844     0.006725     0.999716    
-0.015300    -0.047415    0.998758     0.011771     -0.060590    0.998093    
0.017787     -0.007053    0.999817     0.112105     -0.123606    0.985979    
0.030618     -0.014637    0.999424     0.017623     -0.012108    0.999771    
-0.015769    0.018196     0.999710     -0.005104    0.053668     0.998546    
0.088709     -0.003358    0.996052     0.034122     0.198449     0.979517    
-0.002317    0.004111     0.999989     0.001671     0.016572     0.999861    
0.002783     -0.028696    0.999584     -0.068638    -0.021148    0.997417    
0.006460     0.011901     0.999908     -0.003840    0.015765     0.999868    
-0.037385    0.009570     0.999255     -0.510476    0.070845     0.856969    
0.037955     -0.019478    0.999090     0.011477     -0.014624    0.999827    
-0.020754    -0.024352    0.999488     -0.082056    -0.077041    0.993646    
0.055537     0.061115     0.996584     0.114717     -0.323995    0.939078    
-0.027684    0.006471     0.999596     -0.032723    -0.028625    0.999054    
-0.016761    -0.004041    0.999851     -0.033548    -0.000933    0.999437    
-0.028578    0.036664     0.998919     0.162138     0.395982     0.903830    
-0.035213    0.013431     0.999290     -0.110954    -0.083732    0.990292    
-0.038795    0.016892     0.999104     -0.058593    0.006378     0.998262    
0.001437     -0.019171    0.999815     0.075262     0.010255     0.997111    
0.024742     -0.073722    0.996972     0.075793     -0.107155    0.991349    
0.002522     0.004515     0.999987     0.041504     0.010993     0.999078    
-0.071892    0.070642     0.994908     0.056239     0.163658     0.984913    
-0.012595    0.078399     0.996843     0.022191     0.044518     0.998762    
0.041113     0.026165     0.998812     0.066115     -0.000247    0.997812    
-0.014990    -0.000016    0.999888     0.020366     0.128248     0.991533    
-0.001309    -0.001120    0.999999     0.009966     0.042111     0.999063    
-0.002217    0.029855     0.999552     -0.030541    0.024186     0.999241    
-0.011383    -0.095338    0.995380     -0.042816    0.176974     0.983284    
0.084050     -0.084888    0.992839     0.069574     -0.213073    0.974556    
-0.015682    0.029134     0.999452     -0.012049    0.026854     0.999567    
0.004477     -0.037289    0.999295     0.024530     0.236921     0.971219    
0.014003     -0.007958    0.999870     0.011614     0.004385     0.999923    
-0.068439    -0.114214    0.991096     -0.062072    -0.038213    0.997340    
0.022295     0.049338     0.998533     0.028375     0.077555     0.996584    
0.011981     0.028498     0.999522     0.028269     -0.016278    0.999468    
0.013408     -0.015791    0.999785     0.016795     -0.006779    0.999836    
0.032193     -0.135059    0.990315     -0.256583    -0.588986    0.766329    
-0.001459    0.044721     0.998998     0.027038     -0.003161    0.999629    
0.002809     0.041115     0.999150     0.626352     -0.123232    0.769739    
0.035766     0.042629     0.998451     0.037631     0.048645     0.998107    
-0.007723    -0.002656    0.999967     -0.012830    0.011288     0.999854    
-0.055271    -0.033202    0.997919     -0.118407    0.063683     0.990921    
0.009519     0.022925     0.999692     -0.014739    0.046043     0.998831    
-0.032340    -0.030480    0.999012     0.045149     0.074816     0.996175    
0.017438     0.034123     0.999265     0.108495     0.061144     0.992215    
0.004140     -0.021380    0.999763     -0.006976    -0.032562    0.999445    
-0.009854    0.010061     0.999901     -0.043062    0.000503     0.999072    
-0.019901    0.066754     0.997571     0.210207     -0.017351    0.977503    
0.017093     0.038049     0.999130     0.041045     0.045656     0.998114    
0.046694     -0.096468    0.994240     0.022765     0.098830     0.994844    
-0.056913    0.015085     0.998265     -0.043878    0.019018     0.998856    
-0.001988    0.006503     0.999977     -0.019454    0.026777     0.999452    
-0.029883    0.063087     0.997561     -0.109720    0.116230     0.987143    
-0.047263    -0.022969    0.998618     -0.174871    -0.182358    0.967556    
0.000394     0.006831     0.999977     0.270867     0.538230     0.798085    
-0.005840    0.005223     0.999969     0.013138     0.148522     0.988822    
-0.086810    0.029643     0.995784     -0.055334    0.062572     0.996505    
0.022326     -0.037787    0.999036     0.049161     -0.081542    0.995457    
0.017518     0.004244     0.999838     0.019777     0.010506     0.999749    
-0.017311    0.002640     0.999847     -0.011095    0.019665     0.999745    
-0.015272    -0.026149    0.999541     0.030547     -0.023344    0.999261    
0.072799     -0.005345    0.997332     0.122443     -0.033093    0.991924    
-0.022333    -0.014563    0.999645     -0.115029    -0.151585    0.981728    
-0.002788    -0.005872    0.999979     -0.013834    -0.003398    0.999898    
0.105110     -0.073363    0.991751     0.096775     -0.122864    0.987694    
-0.014503    0.027844     0.999507     -0.102713    -0.040331    0.993893    
-0.007623    -0.010747    0.999913     -0.027994    -0.020441    0.999399    
-0.023142    -0.023050    0.999466     -0.068985    0.028300     0.997216    
-0.004676    -0.000001    0.999989     0.015899     0.039123     0.999108    
-0.002937    0.007561     0.999967     -0.011241    0.011339     0.999873    
-0.025675    0.037916     0.998951     -0.061416    0.006021     0.998094    
-0.049288    -0.003331    0.998779     -0.080858    -0.020444    0.996516    
-0.060655    0.080041     0.994944     -0.143657    0.043752     0.988660    
-0.029677    -0.003041    0.999555     0.008372     -0.048888    0.998769    
-0.030551    0.028940     0.999114     -0.022156    0.051384     0.998433    
0.014410     -0.012469    0.999818     -0.039551    -0.406610    0.912745    
0.027756     -0.025260    0.999296     0.148388     0.159478     0.975986    
0.074148     -0.094722    0.992739     0.217252     -0.040209    0.975287    
-0.005513    0.011140     0.999923     -0.063664    -0.029939    0.997522    
0.035589     -0.020322    0.999160     0.046580     -0.014294    0.998812    
0.011908     -0.003089    0.999924     0.028434     0.207214     0.977882    
-0.068410    0.152369     0.985953     0.096818     0.304410     0.947608    
0.000723     0.034130     0.999417     -0.039764    0.005953     0.999191    
-0.080295    0.029963     0.996321     0.062581     -0.013232    0.997952    
-0.016991    -0.004763    0.999844     -0.014208    -0.014090    0.999800    
0.081510     -0.066360    0.994461     -0.055492    -0.004307    0.998450    
-0.007926    -0.001595    0.999967     0.055026     0.011933     0.998414    
0.017893     -0.029659    0.999400     -0.077361    -0.135103    0.987807    
0.015536     0.012433     0.999802     -0.237024    -0.105914    0.965713    
-0.005596    0.017763     0.999827     -0.009681    0.019142     0.999770    
-0.041708    -0.045940    0.998073     0.005501     0.046311     0.998912    
-0.005013    -0.011096    0.999926     0.036903     0.024013     0.999030    
-0.007903    0.003964     0.999961     0.078003     0.002706     0.996950    
0.031861     -0.022279    0.999244     0.029631     -0.046680    0.998470    
0.030493     0.031405     0.999041     0.070246     0.109699     0.991480    
0.018110     0.005155     0.999823     -0.405451    -0.895746    -0.182344   
-0.007661    0.017728     0.999813     0.003126     0.027974     0.999604    
-0.149430    -0.021833    0.988531     -0.026843    0.459270     0.887891    
-0.055819    0.132313     0.989635     -0.067378    0.131133     0.989072    
0.016956     0.055030     0.998341     -0.058883    0.024375     0.997967    
0.077740     -0.009362    0.996930     0.145483     0.091168     0.985151    
-0.018950    0.016074     0.999691     0.116540     0.114810     0.986528    
-0.017421    0.015277     0.999732     -0.047850    0.053723     0.997409    
0.009879     -0.029630    0.999512     0.074169     -0.026689    0.996888    
-0.007685    0.026347     0.999623     0.006494     0.024206     0.999686    
0.096973     0.117709     0.988302     0.121142     -0.041607    0.991763    
-0.015770    -0.001938    0.999874     -0.035338    -0.041521    0.998512    
0.009564     0.000962     0.999954     0.010892     -0.004300    0.999931    
-0.051726    -0.054143    0.997192     -0.006697    0.010595     0.999921    
0.014213     -0.000943    0.999899     0.042307     -0.003220    0.999099    
-0.000206    0.008369     0.999965     -0.014393    0.005846     0.999879    
-0.082533    -0.068178    0.994254     -0.091315    0.033486     0.995259    
0.003132     -0.004164    0.999986     -0.034724    -0.025210    0.999079    
0.016698     0.001371     0.999860     0.011905     0.018272     0.999762    
-0.056582    -0.038723    0.997647     -0.079871    -0.032541    0.996274    
0.145565     -0.032924    0.988801     0.313107     -0.273607    0.909452    
-0.012179    -0.013409    0.999836     0.030137     -0.016657    0.999407    
0.081661     0.100502     0.991580     0.014067     0.030172     0.999446    
-0.006166    -0.014260    0.999879     0.049593     0.024865     0.998460    
-0.033763    0.051593     0.998097     -0.001463    0.303666     0.952778    
-0.022001    0.063439     0.997743     0.002459     0.007620     0.999968    
-0.007157    0.018252     0.999808     -0.023814    0.028674     0.999305    
0.035492     0.026401     0.999021     0.042835     -0.018611    0.998909    
0.004802     -0.009742    0.999941     0.062570     0.120197     0.990776    
-0.022506    0.003929     0.999739     -0.015794    0.023273     0.999604    
-0.009548    0.019542     0.999763     -0.020628    0.019331     0.999600    
-0.006913    -0.006058    0.999958     0.009148     -0.046282    0.998887    
0.072061     -0.055767    0.995840     0.124841     -0.129377    0.983705    
0.031922     0.035034     0.998876     -0.046960    0.029063     0.998474    
-0.091247    -0.041163    0.994977     0.003814     -0.122541    0.992456    
0.103393     0.078898     0.991506     -0.254543    0.150657     0.955254    
0.021511     -0.027750    0.999383     0.040651     -0.018276    0.999006    
-0.032313    0.003198     0.999473     -0.007347    0.059827     0.998182    
-0.019577    0.020858     0.999591     -0.025012    -0.044050    0.998716    
-0.016714    0.010247     0.999808     -0.027749    0.016930     0.999472    
-0.029043    0.000996     0.999578     -0.085471    -0.019101    0.996158    
0.001914     0.033178     0.999448     0.154023     -0.015927    0.987939    
0.003817     0.001078     0.999992     -0.055020    0.052088     0.997126    
-0.007188    0.056892     0.998354     0.057883     0.078238     0.995253    
-0.021866    -0.003956    0.999753     -0.025734    0.002631     0.999665    
0.004989     0.019099     0.999805     0.011094     0.011274     0.999875    
-0.005266    -0.016783    0.999845     -0.010652    0.009673     0.999896    
0.004163     0.003622     0.999985     0.047574     0.025156     0.998551    
-0.004653    0.049109     0.998783     0.087881     0.082385     0.992718    
-0.011248    0.020097     0.999735     -0.000405    0.003997     0.999992    
-0.013796    0.015531     0.999784     -0.049465    0.067654     0.996482    
-0.019037    -0.028013    0.999426     -0.113509    -0.030643    0.993064    
0.016424     -0.041166    0.999017     -0.037262    0.016991     0.999161    
-0.066672    0.010343     0.997721     -0.020009    0.032280     0.999279    
0.036311     0.015343     0.999223     -0.183575    -0.030197    0.982542    
0.144177     -0.032765    0.989009     0.152012     -0.142578    0.978041    
-0.009874    -0.028660    0.999540     -0.128249    -0.087312    0.987891    
-0.040467    0.047894     0.998032     -0.062952    0.028261     0.997616    
0.049142     -0.041131    0.997944     -0.040662    -0.124902    0.991336    
0.010505     -0.015325    0.999827     -0.016928    -0.008644    0.999819    
0.001024     0.009587     0.999954     0.003129     0.018473     0.999824    
-0.013927    0.051411     0.998580     -0.202863    -0.012721    0.979124    
-0.022104    -0.039037    0.998993     -0.033044    0.015593     0.999332    
0.004343     0.006151     0.999972     -0.007851    -0.023436    0.999695    
-0.003164    -0.017274    0.999846     0.002777     -0.037912    0.999277    
-0.015237    -0.049809    0.998642     0.711385     0.457329     0.533648    
0.085486     0.119736     0.989118     -0.035401    -0.052934    0.997970    
0.032664     0.021652     0.999232     -0.007813    -0.013162    0.999883    
0.018615     0.059003     0.998084     0.060782     0.069723     0.995713    
0.033214     0.006720     0.999426     0.038851     -0.007944    0.999213    
-0.008895    -0.025966    0.999623     -0.032596    -0.015484    0.999349    
-0.029176    -0.017942    0.999413     -0.046605    -0.021203    0.998688    
0.047041     0.025054     0.998579     0.103601     0.133847     0.985572    
-0.052950    0.022769     0.998338     -0.013265    0.019306     0.999726    
0.006051     0.027179     0.999612     0.088188     0.014177     0.996003    
0.032574     -0.031516    0.998972     0.042231     0.069591     0.996681    
0.008426     0.007800     0.999934     0.018060     -0.025566    0.999510    
-0.045115    0.007817     0.998951     -0.050323    0.095241     0.994181    
-0.037418    0.001784     0.999298     -0.093238    -0.101032    0.990504    
-0.080563    -0.043319    0.995808     0.058789     -0.118764    0.991181    
0.008742     0.015755     0.999838     0.012834     0.028469     0.999512    
-0.086351    0.030917     0.995785     -0.062917    -0.040204    0.997209    
0.094142     -0.059737    0.993765     0.137823     -0.142044    0.980219    
-0.049165    0.003810     0.998783     -0.039261    -0.013028    0.999144    
0.020185     -0.026994    0.999432     0.036744     -0.025627    0.998996    
0.030837     0.002614     0.999521     0.015261     0.009664     0.999837    
0.010719     0.053173     0.998528     0.017120     0.045192     0.998832    
0.006379     -0.002941    0.999975     -0.016258    -0.005306    0.999854    
