0.018141     -0.034706    0.999233     0.042869     -0.054897    0.997571    
-0.007365    -0.034060    0.999393     0.008412     -0.028193    0.999567    
-0.008410    0.003021     0.999960     -0.011545    -0.013402    0.999844    
-0.011451    -0.028040    0.999541     0.002026     -0.023455    0.999723    
0.030485     -0.013673    0.999442     0.044573     -0.110429    0.992884    
-0.053659    0.010616     0.998503     0.018429     -0.128172    0.991581    
0.004993     0.001686     0.999986     0.016876     0.058088     0.998169    
-0.016596    0.020401     0.999654     0.005573     -0.013446    0.999894    
0.052763     -0.017483    0.998454     -0.012090    0.008265     0.999893    
-0.031409    0.065992     0.997326     -0.168308    -0.036214    0.985069    
-0.001927    -0.022821    0.999738     -0.000127    -0.040498    0.999180    
0.060590     -0.036158    0.997508     0.102219     0.096792     0.990042    
-0.037427    -0.047904    0.998151     -0.145796    -0.054881    0.987791    
0.006424     -0.023846    0.999695     -0.008030    -0.040433    0.999150    
0.100812     -0.028715    0.994491     -0.055074    -0.093425    0.994102    
0.005923     -0.020733    0.999768     -0.003712    -0.034516    0.999397    
0.014747     0.010000     0.999841     -0.099091    0.205874     0.973549    
-0.035740    -0.001119    0.999361     -0.141992    0.078112     0.986781    
0.003587     0.005001     0.999981     -0.016239    0.019944     0.999669    
0.055205     -0.026673    0.998119     0.024606     -0.061586    0.997798    
-0.028465    -0.004227    0.999586     -0.013958    -0.022028    0.999660    
-0.012777    -0.110190    0.993828     -0.157492    -0.162883    0.973995    
-0.006742    0.041982     0.999096     0.125405     0.149516     0.980775    
-0.011904    0.010301     0.999876     -0.443663    -0.285072    0.849645    
-0.027895    0.126992     0.991511     0.035919     0.175868     0.983758    
-0.009205    0.032973     0.999414     0.093214     0.030557     0.995177    
-0.018472    0.043491     0.998883     0.019938     -0.005080    0.999788    
0.006506     0.009352     0.999935     -0.023264    0.007812     0.999699    
0.133853     0.017012     0.990855     0.186265     0.061023     0.980603    
0.036090     -0.055220    0.997822     -0.015470    -0.120187    0.992631    
-0.017252    0.005550     0.999836     -0.098895    0.003801     0.995091    
-0.001274    0.004571     0.999989     -0.027450    0.042541     0.998718    
0.018670     0.013539     0.999734     0.020031     0.010453     0.999745    
0.034247     -0.008034    0.999381     -0.079315    -0.071228    0.994302    
0.073652     0.074465     0.994500     0.167577     0.049478     0.984617    
-0.000643    0.060165     0.998188     0.004174     0.032562     0.999461    
0.010203     -0.030344    0.999487     0.020304     -0.014901    0.999683    
-0.020015    0.031943     0.999289     0.033420     0.122011     0.991966    
0.058630     0.081113     0.994979     0.115255     -0.008936    0.993296    
-0.010354    0.025817     0.999613     -0.004973    0.022492     0.999735    
-0.017376    -0.026583    0.999496     0.010862     -0.006867    0.999917    
-0.028666    -0.010854    0.999530     -0.016376    0.022879     0.999604    
0.100859     -0.049198    0.993684     0.749542     0.184372     -0.635762   
0.043385     0.011190     0.998996     0.274256     0.097661     0.956685    
-0.007837    0.001137     0.999969     -0.006162    0.015470     0.999861    
-0.013995    0.023294     0.999631     0.261718     0.382314     0.886194    
0.048369     0.008385     0.998794     0.003342     0.002368     0.999992    
-0.006938    0.004135     0.999967     0.027793     0.099998     0.994599    
0.084369     0.007728     0.996405     0.055430     0.021289     0.998236    
0.014148     0.012816     0.999818     0.027657     0.025765     0.999285    
0.001342     0.004168     0.999990     -0.005948    0.026211     0.999639    
-0.005263    0.081333     0.996673     0.019038     0.005860     0.999802    
0.014504     -0.006646    0.999873     0.205872     -0.091152    0.974324    
0.031507     0.013600     0.999411     0.010999     0.003071     0.999935    
-0.021639    -0.009411    0.999722     -0.063732    -0.034524    0.997370    
-0.031780    -0.025370    0.999173     0.123592     -0.010594    0.992277    
0.032152     0.002978     0.999479     0.062036     0.027835     0.997686    
0.004672     -0.002759    0.999985     -0.023982    0.027295     0.999340    
0.001372     0.026385     0.999651     0.005609     0.008744     0.999946    
-0.044978    -0.051793    0.997644     -0.018271    0.010220     0.999781    
-0.061934    -0.054544    0.996589     -0.014875    0.013738     0.999795    
-0.002368    0.031901     0.999488     0.025877     0.034894     0.999056    
-0.012008    -0.002460    0.999925     0.015857     0.028881     0.999457    
-0.043705    -0.036265    0.998386     0.241130     -0.175859    0.954427    
-0.003880    -0.002095    0.999990     -0.006218    0.011266     0.999917    
0.097843     -0.123287    0.987536     -0.206790    0.124390     0.970446    
-0.031833    -0.033136    0.998944     0.018960     -0.058667    0.998098    
-0.013560    0.004013     0.999900     -0.012261    0.014668     0.999817    
0.002361     -0.003274    0.999992     0.003801     -0.065286    0.997859    
0.009263     -0.027443    0.999580     0.086247     0.071321     0.993718    
-0.005544    -0.014598    0.999878     -0.029795    0.009773     0.999508    
0.006961     0.003510     0.999970     0.012686     -0.016874    0.999777    
0.016766     0.014357     0.999756     0.025458     -0.028335    0.999274    
0.033494     0.010072     0.999388     -0.055263    0.043494     0.997524    
0.013364     -0.014469    0.999806     0.008407     -0.026580    0.999611    
0.068129     0.026669     0.997320     0.214510     -0.284451    0.934384    
-0.125542    0.026302     0.991739     -0.269014    -0.122950    0.955256    
0.011125     -0.006617    0.999916     0.012333     -0.002269    0.999921    
0.005833     -0.017694    0.999827     -0.012946    -0.044349    0.998932    
-0.005416    -0.000203    0.999985     -0.022672    -0.004755    0.999732    
0.014073     -0.037959    0.999180     0.016713     0.011958     0.999789    
-0.034699    0.010233     0.999345     0.034016     -0.012742    0.999340    
-0.003192    -0.062412    0.998045     0.014848     -0.073647    0.997174    
-0.013736    -0.038222    0.999175     0.197492     -0.092327    0.975947    
-0.015243    0.006240     0.999864     -0.027511    0.005699     0.999605    
-0.048323    -0.080386    0.995592     -0.006627    -0.090390    0.995884    
0.006683     0.012098     0.999904     -0.012452    -0.015582    0.999801    
-0.013307    -0.032757    0.999375     -0.031245    -0.135904    0.990229    
0.023006     -0.079659    0.996557     -0.109489    -0.040279    0.993172    
0.014434     -0.010597    0.999840     -0.009818    0.026067     0.999612    
-0.006856    -0.008662    0.999939     -0.006911    0.019523     0.999786    
0.014787     0.052583     0.998507     -0.000928    0.058708     0.998275    
-0.013803    0.006554     0.999883     -0.012475    0.010564     0.999866    
-0.018300    0.028944     0.999413     -0.128667    0.051473     0.990351    
0.074511     0.065510     0.995066     0.073760     0.072422     0.994643    
-0.008754    -0.039243    0.999191     -0.085809    -0.055477    0.994766    
-0.014142    -0.011779    0.999831     -0.013765    -0.091767    0.995685    
-0.010050    -0.072969    0.997284     0.027316     -0.013417    0.999537    
0.037293     0.020960     0.999085     0.024261     0.021366     0.999477    
-0.023291    0.006411     0.999708     0.005507     0.125802     0.992040    
-0.026347    -0.071445    0.997097     0.101471     0.068355     0.992487    
0.069474     0.010959     0.997524     0.161432     0.073518     0.984142    
-0.066126    0.028650     0.997400     -0.035242    0.008924     0.999339    
-0.023331    0.111020     0.993544     0.154903     0.082182     0.984506    
0.056965     0.084196     0.994819     -0.073870    -0.033088    0.996719    
-0.006295    -0.027889    0.999591     -0.023299    -0.040213    0.998919    
0.030689     0.024540     0.999228     0.084121     -0.033763    0.995883    
0.003910     -0.002825    0.999988     0.009735     0.033713     0.999384    
0.048395     0.009593     0.998782     0.155071     -0.103420    0.982475    
-0.059370    0.029589     0.997797     -0.155417    -0.255122    0.954337    
-0.027662    0.031441     0.999123     0.030734     0.007163     0.999502    
-0.031919    0.036712     0.998816     0.190581     -0.049188    0.980438    
-0.031501    -0.028350    0.999102     -0.074480    -0.070769    0.994708    
-0.007042    -0.014159    0.999875     -0.018198    -0.032594    0.999303    
0.117823     0.003730     0.993028     -0.111079    0.206375     0.972148    
0.018694     -0.024983    0.999513     -0.012260    -0.183725    0.982901    
0.013036     -0.008338    0.999880     0.021362     -0.017849    0.999612    
-0.055498    0.051683     0.997120     -0.066130    -0.013965    0.997713    
0.066146     0.128666     0.989480     0.037863     0.090647     0.995163    
-0.041274    0.039250     0.998377     -0.065835    0.065068     0.995707    
-0.062235    -0.013239    0.997974     -0.008152    -0.143182    0.989663    
0.013761     0.065869     0.997733     0.273188     0.091580     0.957591    
0.008700     -0.006045    0.999944     0.017878     -0.105388    0.994271    
-0.020999    0.057362     0.998133     0.014244     -0.049876    0.998654    
-0.078980    -0.018357    0.996707     -0.091861    -0.162732    0.982385    
0.013702     0.022016     0.999664     -0.001632    -0.027324    0.999625    
-0.008466    0.011674     0.999896     -0.010446    -0.027588    0.999565    
-0.049210    -0.009246    0.998746     -0.018856    0.026823     0.999462    
0.020667     0.005600     0.999771     -0.067452    0.038536     0.996978    
-0.039408    0.153060     0.987431     -0.370008    -0.524973    0.766484    
0.053089     -0.029277    0.998161     -0.067377    -0.084446    0.994148    
-0.000509    0.018852     0.999822     -0.045527    0.138098     0.989372    
-0.005795    0.005557     0.999968     0.005105     0.011404     0.999922    
0.023303     -0.014217    0.999627     -0.006602    -0.059555    0.998203    
-0.012142    -0.047170    0.998813     0.011034     -0.036768    0.999263    
-0.053866    -0.046706    0.997455     -0.070503    -0.047132    0.996397    
-0.004619    -0.019674    0.999796     -0.011094    -0.022684    0.999681    
0.044709     -0.029604    0.998561     0.034477     -0.025298    0.999085    
0.073527     -0.005766    0.997277     0.081847     -0.060166    0.994827    
-0.096117    -0.018855    0.995191     -0.168576    0.182329     0.968679    
-0.013909    0.123989     0.992186     0.014177     0.235783     0.971702    
-0.002282    -0.055457    0.998458     -0.028709    -0.104748    0.994084    
0.023172     0.021584     0.999498     0.127493     0.000625     0.991839    
-0.012973    0.018307     0.999748     -0.005828    0.047895     0.998835    
0.051142     -0.106375    0.993010     0.034261     -0.143175    0.989104    
-0.037463    -0.003045    0.999293     -0.080916    0.054306     0.995240    
-0.012323    -0.003004    0.999920     0.013964     0.010394     0.999848    
0.026290     0.005336     0.999640     0.035924     0.003319     0.999349    
0.005412     0.035058     0.999371     -0.018849    0.035461     0.999193    
0.000438     0.005893     0.999983     0.011793     -0.007121    0.999905    
-0.001284    0.010515     0.999944     -0.004860    0.011182     0.999926    
0.000671     -0.005916    0.999982     0.405125     0.072917     0.911349    
0.007864     -0.005958    0.999951     -0.033204    -0.039287    0.998676    
0.016386     0.008129     0.999833     0.106971     -0.088516    0.990314    
-0.007816    0.041274     0.999117     0.016647     -0.099373    0.994911    
0.044378     -0.045115    0.997996     0.105904     -0.050520    0.993092    
-0.000248    -0.006919    0.999976     -0.033934    -0.044059    0.998452    
-0.071541    -0.008817    0.997399     -0.157577    0.217622     0.963229    
0.009870     0.003402     0.999945     0.261169     -0.023097    0.965017    
-0.037808    0.010153     0.999233     -0.047985    -0.014810    0.998738    
0.020572     0.005914     0.999771     0.042068     0.003871     0.999107    
-0.021612    0.018824     0.999589     -0.071198    -0.011716    0.997393    
0.059312     0.019627     0.998047     0.055032     0.034563     0.997886    
-0.059356    -0.077937    0.995190     -0.011336    -0.029009    0.999515    
-0.000901    -0.009175    0.999957     -0.026801    0.008455     0.999605    
-0.007644    -0.027537    0.999592     -0.106860    -0.049544    0.993039    
0.014067     0.016247     0.999769     0.011870     0.021450     0.999699    
0.000705     0.017210     0.999852     0.140421     -0.006807    0.990069    
0.034744     -0.040882    0.998560     0.041839     -0.014603    0.999018    
0.039089     -0.010799    0.999177     0.006692     0.018572     0.999805    
-0.004859    0.002115     0.999986     0.007686     0.048658     0.998786    
0.009070     0.033488     0.999398     0.056697     -0.106344    0.992712    
0.042400     -0.023591    0.998822     -0.056913    -0.037857    0.997661    
0.005981     -0.018418    0.999813     -0.189835    0.031776     0.981302    
0.008396     -0.005007    0.999952     0.009344     -0.040971    0.999117    
-0.020883    -0.002482    0.999779     0.039153     -0.016267    0.999101    
0.072865     0.021740     0.997105     0.133577     -0.005953    0.991021    
0.041795     -0.007777    0.999096     0.252215     -0.011879    0.967598    
0.004388     0.029908     0.999543     0.083338     -0.015383    0.996403    
-0.033265    0.010208     0.999394     0.036044     0.004176     0.999341    
-0.019077    -0.006374    0.999798     -0.011483    -0.006786    0.999911    
0.016126     0.000526     0.999870     0.143051     0.029702     0.989270    
-0.022976    -0.007864    0.999705     0.632315     0.039926     0.773682    
0.062096     -0.007079    0.998045     -0.218151    -0.152712    0.963893    
0.042871     0.013558     0.998989     0.055772     0.009083     0.998402    
0.014243     -0.010764    0.999841     0.002996     -0.026265    0.999650    
0.126348     -0.002622    0.991983     0.183080     -0.048335    0.981909    
0.050920     0.056371     0.997111     0.240382     0.218757     0.945707    
-0.013903    0.044622     0.998907     0.020403     -0.007709    0.999762    
-0.047054    0.057927     0.997211     0.069637     0.007603     0.997543    
-0.011602    0.012827     0.999850     -0.013015    -0.017840    0.999756    
0.047873     -0.032556    0.998323     0.064249     0.012779     0.997852    
-0.025501    0.019716     0.999480     -0.045541    0.023690     0.998682    
0.023093     -0.096636    0.995052     0.151548     -0.039013    0.987680    
-0.028707    0.148078     0.988559     -0.020950    0.120919     0.992441    
0.021712     0.062697     0.997796     0.028393     0.127393     0.991446    
-0.020863    0.010096     0.999731     0.049837     -0.050171    0.997496    
-0.033954    0.004008     0.999415     -0.039032    -0.007760    0.999208    
-0.000273    0.025489     0.999675     0.007857     0.027010     0.999604    
0.019039     0.007788     0.999788     0.106715     0.203121     0.973321    
0.008393     0.002806     0.999961     -0.050669    0.043354     0.997774    
-0.040417    0.010832     0.999124     -0.046674    -0.007654    0.998881    
-0.014257    -0.000016    0.999898     -0.024468    0.020005     0.999500    
0.017486     0.024215     0.999554     0.114513     -0.021034    0.993199    
0.010584     -0.003022    0.999939     0.014608     -0.016326    0.999760    
-0.071605    0.023234     0.997162     -0.371759    0.388266     0.843235    
-0.076258    -0.013912    0.996991     -0.090016    -0.084595    0.992341    
-0.153434    0.040237     0.987339     0.257373     0.048782     0.965080    
-0.005593    -0.003176    0.999979     -0.006615    -0.017200    0.999830    
-0.045954    0.004205     0.998935     -0.017413    0.068584     0.997493    
-0.086614    0.077998     0.993184     -0.025066    0.043208     0.998752    
-0.042267    0.014535     0.999001     -0.052399    0.028200     0.998228    
-0.052125    0.141936     0.988503     -0.061685    0.061106     0.996223    
0.007717     -0.031984    0.999459     -0.003299    -0.025273    0.999675    
0.022749     -0.001226    0.999740     0.033116     -0.041864    0.998574    
-0.040923    -0.059789    0.997372     -0.016309    -0.072105    0.997264    
0.010071     -0.004345    0.999940     -0.001277    -0.006151    0.999980    
0.115532     -0.013679    0.993210     0.154520     -0.014222    0.987887    
0.012764     0.049583     0.998688     -0.011025    0.096387     0.995283    
0.001339     0.007914     0.999968     0.006865     -0.029471    0.999542    
0.116453     0.005106     0.993183     -0.071611    -0.225782    0.971542    
0.031620     0.029137     0.999075     0.008034     0.029922     0.999520    
-0.160880    -0.016958    0.986828     -0.325732    -0.089041    0.941260    
0.082063     -0.036610    0.995954     -0.031539    -0.192075    0.980873    
0.005475     0.003167     0.999980     -0.033504    -0.017974    0.999277    
0.005629     -0.008740    0.999946     -0.010674    -0.034249    0.999356    
-0.016072    0.032693     0.999336     0.083541     -0.053647    0.995059    
-0.005405    0.031229     0.999498     -0.026806    -0.007783    0.999610    
-0.023112    0.006585     0.999711     0.040948     0.042277     0.998266    
0.065534     0.014215     0.997749     -0.074070    -0.050796    0.995959    
-0.016110    -0.039385    0.999094     -0.026181    0.004286     0.999648    
0.043583     -0.060752    0.997201     0.022674     -0.052151    0.998382    
0.024746     0.013348     0.999605     0.006405     -0.029779    0.999536    
0.029919     -0.020266    0.999347     -0.155337    -0.292486    0.943569    
-0.044508    -0.071501    0.996447     -0.859665    -0.161050    0.484808    
-0.052390    -0.025499    0.998301     -0.027162    0.077418     0.996629    
0.078316     -0.012711    0.996848     0.062857     -0.029002    0.997601    
0.013587     -0.004942    0.999895     -0.061611    -0.034241    0.997513    
-0.006582    0.020073     0.999777     -0.009711    0.018148     0.999788    
0.058785     -0.070390    0.995786     0.026219     -0.024635    0.999353    
-0.035344    0.044711     0.998375     0.034688     0.092796     0.995081    
0.059224     -0.177907    0.982263     -0.160114    0.481131     0.861903    
-0.002255    -0.021902    0.999757     -0.170425    -0.260901    0.950203    
0.047627     -0.061334    0.996980     -0.070470    0.063553     0.995487    
0.002097     0.002961     0.999993     -0.023634    -0.013714    0.999627    
0.034916     0.071933     0.996798     0.098731     0.080882     0.991822    
0.026863     0.038796     0.998886     0.825075     -0.284076    0.488418    
-0.009691    0.037255     0.999259     -0.043764    0.058389     0.997334    
0.071525     0.045541     0.996399     0.412054     -0.095909    0.906098    
0.050219     0.044322     0.997754     0.064712     0.027872     0.997515    
0.005558     -0.001832    0.999983     -0.006960    -0.005499    0.999961    
-0.017150    0.020302     0.999647     -0.014012    0.067809     0.997600    
-0.019999    -0.000232    0.999800     0.062896     -0.048557    0.996838    
0.023780     0.011850     0.999647     0.083003     -0.082572    0.993123    
-0.012428    0.050006     0.998672     0.023007     -0.018557    0.999563    
-0.023425    -0.008064    0.999693     -0.037173    -0.034473    0.998714    
0.074946     0.020384     0.996979     0.031548     0.013196     0.999415    
0.029326     -0.097280    0.994825     0.065016     -0.203084    0.977000    
0.013962     0.024970     0.999591     0.008235     0.019530     0.999775    
0.081182     -0.026263    0.996353     0.147896     0.026175     0.988656    
0.006719     -0.025171    0.999661     0.030206     -0.183603    0.982536    
0.000340     0.002967     0.999995     0.010499     -0.001963    0.999943    
0.007200     -0.003616    0.999968     -0.009305    -0.002775    0.999953    
-0.003440    0.002709     0.999990     -0.041302    0.009210     0.999104    
-0.018860    0.001963     0.999820     0.022304     -0.167484    0.985622    
0.022970     0.023977     0.999449     0.040184     0.062601     0.997229    
-0.001293    0.009293     0.999956     0.021193     0.027877     0.999387    
-0.018903    0.011193     0.999759     -0.008327    0.014979     0.999853    
-0.115696    0.010107     0.993233     -0.368593    -0.044793    0.928511    
0.013909     0.063049     0.997914     0.072846     -0.063478    0.995321    
-0.087954    -0.004456    0.996115     -0.277547    0.114792     0.953829    
-0.080497    -0.018108    0.996590     -0.121687    -0.052558    0.991176    
0.099497     -0.032304    0.994513     0.323594     -0.078954    0.942896    
0.007250     -0.001043    0.999973     -0.053040    -0.028558    0.998184    
-0.068861    -0.036907    0.996943     -0.034576    0.108050     0.993544    
0.019682     0.039865     0.999011     -0.208940    -0.020974    0.977704    
0.073809     -0.009922    0.997223     0.022460     0.042628     0.998838    
-0.092576    -0.063367    0.993687     0.033608     -0.043186    0.998502    
-0.000622    0.036254     0.999342     0.000281     -0.018807    0.999823    
0.011063     0.019662     0.999745     -0.005181    -0.043122    0.999056    
0.003240     0.011302     0.999931     0.010553     0.008370     0.999909    
0.038270     0.052434     0.997891     0.081856     -0.076462    0.993707    
0.038274     -0.006178    0.999248     0.066201     -0.003286    0.997801    
0.010430     0.012336     0.999870     0.021930     0.012000     0.999687    
0.030191     0.001249     0.999543     0.033323     0.029847     0.998999    
-0.039888    0.031473     0.998708     0.032938     0.018256     0.999291    
-0.006888    0.015120     0.999862     0.225198     0.128661     0.965781    
-0.006191    0.040888     0.999145     -0.131648    -0.036869    0.990611    
-0.033938    0.024162     0.999132     0.013794     0.084825     0.996300    
-0.030323    0.179996     0.983200     0.069458     0.072532     0.994945    
-0.036023    -0.045182    0.998329     -0.057845    0.010870     0.998266    
-0.084891    0.017814     0.996231     -0.083110    -0.178114    0.980494    
-0.004081    0.010722     0.999934     0.014021     -0.022001    0.999660    
0.007369     0.002201     0.999970     0.008220     -0.004606    0.999956    
0.001745     -0.017000    0.999854     0.041434     0.045290     0.998114    
0.016945     0.037180     0.999165     0.038405     0.027290     0.998890    
-0.040545    0.001566     0.999177     0.005306     0.040321     0.999173    
-0.003169    -0.093841    0.995582     -0.202044    -0.104112    0.973827    
0.016097     -0.008209    0.999837     0.129644     0.089581     0.987506    
-0.015849    0.005727     0.999858     0.035688     -0.066632    0.997139    
-0.150077    -0.010482    0.988619     -0.191280    -0.348802    0.917469    
0.038946     -0.018335    0.999073     0.084421     -0.004278    0.996421    
0.005838     0.020504     0.999773     0.017927     -0.033557    0.999276    
-0.032477    -0.016806    0.999331     -0.051970    -0.156071    0.986378    
-0.021380    0.001806     0.999770     -0.034828    -0.018858    0.999215    
-0.001788    0.030889     0.999521     -0.028260    -0.003069    0.999596    
-0.036589    0.078395     0.996251     0.067220     0.011996     0.997666    
0.002449     0.049180     0.998787     0.033094     0.055801     0.997893    
-0.035856    -0.063405    0.997344     0.131238     -0.152725    0.979516    
-0.174512    -0.029303    0.984219     -0.218554    -0.139188    0.965847    
-0.040455    0.006562     0.999160     -0.033410    0.003507     0.999436    
-0.121037    0.011372     0.992583     0.097513     -0.340549    0.935156    
-0.028287    0.020937     0.999381     0.153646     -0.124043    0.980309    
0.018637     -0.038935    0.999068     0.009928     -0.003910    0.999943    
0.021297     -0.034097    0.999192     -0.078352    -0.003039    0.996921    
0.014937     0.016349     0.999755     0.038495     0.061442     0.997368    
-0.004197    0.014050     0.999892     -0.006808    -0.022242    0.999729    
-0.008711    0.017244     0.999813     -0.031384    -0.010931    0.999448    
0.011726     0.002175     0.999929     0.024683     0.021932     0.999455    
0.004140     0.019350     0.999804     -0.011831    0.025705     0.999600    
-0.066876    -0.011538    0.997695     0.001179     -0.026924    0.999637    
0.013300     0.044370     0.998927     0.316509     0.240936     0.917481    
0.006664     0.004608     0.999967     -0.090285    -0.017973    0.995754    
-0.065533    0.066186     0.995653     -0.303329    -0.049178    0.951616    
0.008152     -0.012633    0.999887     0.021753     -0.019504    0.999573    
-0.010199    -0.053667    0.998507     -0.138908    -0.209949    0.967794    
0.024318     0.020100     0.999502     0.027967     -0.024073    0.999319    
-0.001589    0.054817     0.998495     -0.500268    0.245212     0.830424    
0.044170     -0.066013    0.996841     0.008956     -0.077822    0.996927    
-0.027662    0.003029     0.999613     -0.155258    0.424477     0.892028    
-0.073708    -0.027100    0.996912     -0.080156    0.051789     0.995436    
-0.016702    0.008039     0.999828     0.037096     -0.033961    0.998734    
-0.027946    0.027036     0.999244     -0.034320    0.058921     0.997673    
-0.013317    0.011639     0.999844     -0.038257    0.014285     0.999166    
-0.047297    0.036887     0.998199     0.050769     -0.006748    0.998688    
0.013020     0.004415     0.999906     0.011728     -0.023842    0.999647    
-0.060752    -0.015152    0.998038     -0.099718    -0.147162    0.984073    
0.016026     -0.032113    0.999356     0.035901     0.093006     0.995018    
0.050838     -0.044857    0.997699     0.036036     -0.013397    0.999261    
0.010562     -0.034602    0.999345     -0.067789    0.181391     0.981072    
0.000414     -0.008202    0.999966     -0.047438    -0.035377    0.998247    
-0.015278    -0.062431    0.997932     -0.007470    0.093799     0.995563    
0.006421     -0.009391    0.999935     0.021402     -0.014590    0.999664    
-0.016097    -0.004781    0.999859     -0.042537    0.051165     0.997784    
-0.027812    0.001517     0.999612     -0.037333    0.010250     0.999250    
0.004626     -0.020725    0.999775     -0.040591    -0.031374    0.998683    
-0.003806    -0.175367    0.984496     0.123164     -0.549308    0.826493    
-0.046403    -0.010068    0.998872     -0.072331    -0.020064    0.997179    
-0.067172    -0.020962    0.997521     -0.059234    -0.105943    0.992606    
-0.023142    -0.023050    0.999466     -0.068985    0.028300     0.997216    
-0.036064    0.043169     0.998417     -0.107801    0.108997     0.988179    
0.023743     0.005770     0.999701     -0.009672    0.011976     0.999882    
-0.002413    -0.007020    0.999972     0.020277     -0.007278    0.999768    
0.023924     0.010233     0.999661     -0.008908    0.017007     0.999816    
0.020777     -0.014033    0.999686     -0.047191    -0.005789    0.998869    
-0.041699    -0.012245    0.999055     -0.058092    -0.043081    0.997381    
-0.004115    0.095150     0.995454     0.012298     0.099272     0.994984    
0.021983     -0.052034    0.998403     0.025225     -0.140947    0.989696    
-0.190610    0.033356     0.981099     -0.515672    0.115339     0.848987    
0.009934     -0.134464    0.990869     0.312556     -0.382855    0.869328    
0.046633     -0.109554    0.992886     0.022473     -0.057351    0.998101    
-0.003405    0.019298     0.999808     0.023034     0.000538     0.999735    
0.020560     -0.026526    0.999437     0.033764     -0.041586    0.998564    
-0.089126    0.015971     0.995892     -0.073371    0.034682     0.996702    
-0.012367    -0.011056    0.999862     0.005933     0.042899     0.999062    
0.005043     -0.001378    0.999986     0.021625     0.008843     0.999727    
0.050272     -0.040928    0.997897     0.254980     -0.021045    0.966717    
-0.005535    0.006079     0.999966     0.001085     -0.001725    0.999998    
0.046653     0.093894     0.994489     0.336952     -0.005893    0.941503    
0.013515     -0.042867    0.998989     0.074640     0.239767     0.967957    
-0.016651    -0.006336    0.999841     -0.069183    -0.022028    0.997361    
-0.032407    -0.020752    0.999259     -0.114846    0.033884     0.992805    
-0.017667    0.018224     0.999678     -0.091218    -0.035130    0.995211    
-0.004623    0.001364     0.999988     -0.009193    0.004154     0.999949    
0.001233     0.002582     0.999996     0.015189     0.004153     0.999876    
-0.018906    0.026048     0.999482     -0.046273    0.046620     0.997840    
0.010322     0.003556     0.999940     -0.102749    -0.074475    0.991915    
0.027185     -0.014613    0.999524     0.015731     0.012197     0.999802    
0.027356     0.033933     0.999050     0.202726     0.075203     0.976344    
0.012111     0.035941     0.999281     -0.175679    -0.108654    0.978433    
0.019222     -0.036454    0.999150     0.209329     -0.363186    0.907897    
0.027176     -0.000733    0.999630     0.108076     -0.038117    0.993412    
-0.014029    0.025682     0.999572     -0.000230    0.048610     0.998818    
-0.016925    0.000194     0.999857     -0.018857    -0.051520    0.998494    
-0.024202    -0.009337    0.999664     -0.015275    -0.082273    0.996493    
-0.042158    0.044873     0.998103     -0.026846    0.007296     0.999613    
-0.057580    0.009511     0.998296     -0.016917    0.106830     0.994133    
0.053077     -0.020691    0.998376     0.078047     0.040671     0.996120    
-0.006003    0.048544     0.998803     0.042480     -0.024423    0.998799    
0.022146     -0.003984    0.999747     0.088863     -0.004586    0.996033    
0.008491     0.009140     0.999922     0.036700     0.016191     0.999195    
-0.005477    0.003414     0.999979     -0.038580    -0.025433    0.998932    
-0.018322    -0.012457    0.999754     0.058842     -0.011885    0.998197    
0.024483     0.004527     0.999690     -0.023066    0.012955     0.999650    
-0.003860    0.003977     0.999985     0.001991     0.005494     0.999983    
0.021848     -0.022376    0.999511     -0.003876    -0.021826    0.999754    
0.000759     -0.001023    0.999999     -0.015107    -0.025452    0.999562    
-0.033350    -0.016631    0.999305     -0.040727    -0.060875    0.997314    
-0.045819    0.023067     0.998683     0.089808     -0.433452    0.896691    
0.014822     -0.000561    0.999890     0.337721     0.348679     0.874281    
-0.023614    0.004008     0.999713     -0.043894    -0.040119    0.998230    
-0.027157    0.042161     0.998742     0.087144     0.070581     0.993692    
-0.035553    0.016537     0.999231     -0.089401    -0.138862    0.986268    
0.014204     0.080150     0.996682     0.043276     -0.016708    0.998923    
-0.025045    -0.019282    0.999500     0.010486     -0.040290    0.999133    
-0.022450    -0.012553    0.999669     -0.013318    0.002376     0.999908    
-0.013953    -0.006021    0.999884     -0.124436    0.157831     0.979594    
0.001867     0.003494     0.999992     -0.019294    -0.000799    0.999814    
-0.078183    0.002639     0.996936     -0.091536    -0.058377    0.994089    
0.048534     -0.023823    0.998537     0.062658     -0.095779    0.993429    
0.009914     0.120707     0.992639     -0.146694    -0.005773    0.989165    
-0.000770    -0.004409    0.999990     -0.032375    -0.003376    0.999470    
0.061649     -0.027058    0.997731     0.074007     0.005189     0.997244    
-0.051260    0.006590     0.998664     -0.089805    -0.060173    0.994140    
0.033917     0.013625     0.999332     0.087208     0.024077     0.995899    
0.011064     0.098936     0.995032     0.028850     -0.088778    0.995634    
0.025227     -0.074943    0.996869     -0.526374    0.065255     0.847746    
-0.021265    0.035636     0.999139     -0.010075    0.083213     0.996481    
0.006175     0.005743     0.999965     0.010354     0.002177     0.999944    
0.005629     -0.025217    0.999666     0.016537     -0.005059    0.999850    
0.004530     0.000819     0.999989     -0.076788    -0.033947    0.996469    
-0.003679    0.022900     0.999731     -0.011845    0.008861     0.999891    
0.026724     -0.043935    0.998677     -0.024617    -0.007436    0.999669    
0.011826     -0.068722    0.997566     -0.088268    -0.385688    0.918397    
0.081304     0.071095     0.994151     0.063622     0.070234     0.995500    
0.035142     0.011082     0.999321     0.073846     0.037785     0.996554    
-0.018263    0.009040     0.999792     -0.029614    0.039162     0.998794    
-0.005022    -0.004011    0.999979     0.082263     0.037992     0.995886    
-0.018139    -0.023369    0.999562     -0.032898    0.014053     0.999360    
-0.021048    0.060901     0.997922     0.028560     0.072515     0.996958    
0.006647     0.007644     0.999949     0.055520     0.050129     0.997198    
0.003717     -0.032086    0.999478     0.056412     -0.099647    0.993422    
0.064440     -0.016941    0.997778     0.043692     0.118128     0.992037    
-0.007608    -0.021995    0.999729     -0.021448    -0.048967    0.998570    
0.018646     -0.002081    0.999824     -0.003742    0.080796     0.996724    
0.003894     0.016156     0.999862     -0.003407    0.013281     0.999906    
-0.079066    -0.028542    0.996461     -0.066886    0.027772     0.997374    
0.039580     0.031023     0.998735     0.005563     0.069286     0.997581    
-0.029610    -0.002699    0.999558     0.037680     -0.048574    0.998109    
0.050589     -0.051591    0.997386     -0.042319    -0.014583    0.998998    
0.002661     -0.006871    0.999973     -0.009350    -0.022685    0.999699    
-0.003794    -0.011709    0.999924     0.010788     0.051757     0.998601    
0.020174     -0.033033    0.999251     0.088864     0.038130     0.995314    
-0.010197    -0.013182    0.999861     0.007252     -0.014365    0.999871    
0.013267     -0.018746    0.999736     0.003861     -0.003455    0.999987    
0.024449     -0.011593    0.999634     -0.001885    -0.043741    0.999041    
-0.017711    -0.047217    0.998728     0.061295     -0.205348    0.976768    
-0.011556    -0.088952    0.995969     -0.074617    -0.092219    0.992939    
0.024593     0.017610     0.999542     -0.009339    0.003407     0.999951    
0.030323     -0.008025    0.999508     -0.117323    0.010694     0.993036    
-0.008202    -0.004880    0.999954     -0.020510    0.003299     0.999784    
-0.028922    -0.022841    0.999321     0.131287     0.296863     0.945852    
0.002557     0.015893     0.999870     0.012507     0.021284     0.999695    
-0.011734    0.000748     0.999931     0.029140     0.051980     0.998223    
0.013989     0.018749     0.999726     -0.120907    0.059476     0.990880    
0.012825     0.019856     0.999721     0.106626     0.018411     0.994129    
-0.001149    0.007893     0.999968     0.008729     -0.018743    0.999786    
0.014381     -0.000437    0.999896     0.011673     0.005901     0.999915    
0.067515     -0.024961    0.997406     -0.041924    -0.031944    0.998610    
0.022743     0.063837     0.997701     0.406690     0.109382     0.906994    
-0.064615    -0.007608    0.997881     -0.082301    0.046518     0.995521    
0.004616     0.000308     0.999989     0.092394     0.023874     0.995436    
-0.012727    0.001985     0.999917     -0.051353    0.031994     0.998168    
-0.013308    -0.062808    0.997937     -0.056109    -0.035924    0.997778    
0.024654     0.041281     0.998843     -0.006736    0.023114     0.999710    
0.004786     0.005377     0.999974     -0.012458    0.007648     0.999893    
-0.008262    0.078857     0.996852     0.089926     0.028740     0.995534    
0.001070     -0.038400    0.999262     0.001985     0.042878     0.999078    
-0.034677    0.118751     0.992318     0.166912     -0.292308    0.941645    
0.034621     0.013851     0.999305     0.014333     -0.044822    0.998892    
0.020223     0.009674     0.999749     0.000326     0.002423     0.999997    
0.031369     -0.042815    0.998590     0.065243     0.046570     0.996782    
0.007287     -0.001501    0.999972     0.044151     -0.032257    0.998504    
0.093614     0.000144     0.995609     0.065942     -0.032132    0.997306    
0.033797     -0.013767    0.999334     0.054646     0.000667     0.998506    
0.040768     -0.007754    0.999139     0.033691     -0.011344    0.999368    
-0.001603    -0.000136    0.999999     -0.006497    -0.010445    0.999924    
0.033582     -0.004262    0.999427     0.023327     -0.055730    0.998173    
0.095387     -0.013065    0.995355     0.027560     0.179760     0.983324    
0.032885     -0.033381    0.998901     0.027713     -0.061438    0.997726    
-0.001658    0.056168     0.998420     -0.042341    0.119765     0.991899    
0.025400     0.056790     0.998063     0.037803     0.170052     0.984710    
-0.023779    0.000984     0.999717     0.149942     -0.121666    0.981180    
0.036717     0.010686     0.999269     0.036163     0.008458     0.999310    
-0.030007    0.019277     0.999364     0.022256     0.065859     0.997581    
0.008655     -0.006667    0.999940     0.105849     -0.040785    0.993545    
0.014516     -0.094211    0.995446     -0.082775    -0.117992    0.989559    
0.001685     -0.000550    0.999998     -0.004298    0.010778     0.999933    
0.023894     0.060501     0.997882     0.099128     0.132654     0.986193    
-0.016719    -0.011356    0.999796     -0.000325    -0.008926    0.999960    
-0.021444    0.094880     0.995258     0.052557     0.046535     0.997533    
-0.010050    -0.023412    0.999675     -0.006271    -0.040186    0.999173    
-0.021032    -0.025917    0.999443     -0.014750    -0.001624    0.999890    
0.025954     0.005922     0.999646     0.009073     0.031097     0.999475    
-0.053496    -0.061954    0.996644     0.276658     0.545959     0.790816    
0.000996     -0.019977    0.999800     -0.010024    -0.069790    0.997511    
-0.025529    0.024998     0.999361     -0.254066    -0.069672    0.964674    
-0.004292    -0.010234    0.999938     0.011353     -0.019755    0.999740    
0.011358     0.052361     0.998564     0.027914     0.046824     0.998513    
-0.171204    0.071089     0.982668     -0.252958    0.011395     0.967410    
0.018045     0.001579     0.999836     0.175475     -0.359595    0.916461    
0.006537     0.002454     0.999976     0.009202     0.000255     0.999958    
-0.016576    0.042501     0.998959     -0.078898    0.042609     0.995972    
-0.056676    0.102639     0.993103     0.046402     -0.023899    0.998637    
-0.010345    -0.022159    0.999701     -0.027043    -0.015257    0.999518    
-0.004996    0.024116     0.999697     0.222842     0.097886     0.969928    
-0.048405    0.029696     0.998386     -0.014556    0.004050     0.999886    
0.005206     0.000121     0.999986     -0.013933    0.027002     0.999538    
-0.014894    -0.026508    0.999538     -0.034777    -0.076880    0.996434    
0.005086     -0.007572    0.999958     0.018604     0.008590     0.999790    
0.001751     0.004320     0.999989     -0.000320    -0.006151    0.999981    
0.034256     -0.047717    0.998273     0.106484     0.097065     0.989565    
-0.057947    0.043500     0.997371     0.016394     0.266241     0.963767    
0.003371     0.049173     0.998784     0.023349     -0.464300    0.885370    
-0.007582    -0.104934    0.994450     0.209017     0.001398     0.977911    
-0.023138    0.014209     0.999631     -0.026776    0.022253     0.999394    
-0.019396    0.017493     0.999659     -0.063398    0.044946     0.996976    
-0.031236    -0.026002    0.999174     0.048857     -0.066746    0.996573    
-0.007604    -0.022659    0.999714     -0.087174    -0.008572    0.996156    
-0.012106    -0.078091    0.996873     0.202545     -0.291054    0.935020    
-0.005322    0.044430     0.998998     0.385016     -0.595370    0.705193    
-0.118832    0.002723     0.992911     -0.246096    0.262231     0.933098    
-0.050937    -0.028038    0.998308     0.150250     0.180779     0.971979    
0.007821     0.026385     0.999621     -0.064832    -0.005124    0.997883    
0.026075     0.009531     0.999615     -0.021852    0.022775     0.999502    
0.001099     -0.040002    0.999199     -0.025781    -0.086676    0.995903    
-0.021930    -0.019067    0.999578     -0.062018    -0.010156    0.998023    
0.005201     0.031889     0.999478     0.040506     -0.084007    0.995642    
0.042250     0.013832     0.999011     0.091796     0.063660     0.993741    
-0.000127    -0.008668    0.999962     -0.043042    -0.024999    0.998761    
0.004121     -0.013668    0.999898     -0.031131    -0.004011    0.999507    
0.014469     -0.012491    0.999817     -0.226737    -0.161379    0.960493    
0.060906     -0.133260    0.989208     0.017004     0.030036     0.999404    
0.043231     -0.046494    0.997983     0.120699     -0.014473    0.992584    
-0.022674    -0.063859    0.997701     0.013211     -0.066305    0.997712    
0.062321     -0.068514    0.995702     0.081786     -0.194090    0.977569    
0.050911     -0.026401    0.998354     0.000440     0.007828     0.999969    
-0.045633    0.037985     0.998236     0.074650     0.083024     0.993748    
-0.204085    0.108655     0.972905     -0.131148    0.098032     0.986504    
0.034565     0.132465     0.990585     0.549123     -0.758921    0.350005    
-0.057166    0.004816     0.998353     0.055601     -0.039264    0.997681    
0.000220     0.005413     0.999985     0.075791     0.388596     0.918286    
-0.006798    0.042280     0.999083     0.030330     -0.028153    0.999143    
0.014216     0.012034     0.999826     -0.031719    -0.023117    0.999229    
0.001100     0.000936     0.999999     0.018231     0.003839     0.999826    
-0.018403    -0.008252    0.999797     -0.051679    -0.036399    0.998000    
-0.084840    0.079866     0.993189     0.534764     -0.020575    0.844751    
-0.008678    0.039764     0.999171     0.238363     0.197310     0.950922    
0.076595     -0.028545    0.996654     0.058494     0.033217     0.997735    
0.027023     -0.063819    0.997596     -0.084238    0.084461     0.992860    
-0.046336    0.011559     0.998859     -0.052434    0.001657     0.998623    
0.062546     -0.138883    0.988332     0.322284     -0.248121    0.913548    
-0.009355    0.012819     0.999874     -0.010819    0.048216     0.998778    
0.028103     0.029437     0.999171     0.031857     0.129833     0.991024    
-0.000513    0.009910     0.999951     -0.004673    0.014167     0.999889    
-0.004959    -0.004769    0.999976     0.093196     0.023519     0.995370    
-0.034446    -0.112843    0.993016     -0.168094    0.521984     0.836228    
0.011018     0.035389     0.999313     -0.003785    0.000568     0.999993    
0.059018     0.069132     0.995860     0.063697     0.000851     0.997969    
0.023982     -0.005010    0.999700     0.027145     0.023044     0.999366    
-0.046535    -0.040357    0.998101     -0.016003    0.060005     0.998070    
0.016905     -0.000060    0.999857     0.025703     -0.024251    0.999375    
0.002155     -0.047473    0.998870     -0.023962    -0.081987    0.996345    
-0.014591    0.025552     0.999567     -0.017025    0.018970     0.999675    
0.001576     0.006844     0.999975     0.030995     0.064554     0.997433    
-0.013161    0.042837     0.998995     -0.102600    0.247481     0.963445    
-0.030030    0.033431     0.998990     -0.129160    -0.045220    0.990592    
0.011839     -0.040855    0.999095     0.016235     -0.047758    0.998727    
0.107479     -0.126301    0.986152     0.433300     0.105303     0.895077    
-0.005527    -0.002478    0.999982     -0.018548    0.002116     0.999826    
0.024968     -0.054846    0.998183     0.124033     -0.126625    0.984166    
0.029609     -0.015337    0.999444     -0.037333    -0.021462    0.999072    
-0.000944    -0.008892    0.999960     -0.002683    -0.019112    0.999814    
0.015313     0.022371     0.999632     0.026459     0.042894     0.998729    
-0.080855    0.109721     0.990668     -0.018988    0.064797     0.997718    
-0.032964    0.044173     0.998480     0.011188     0.120329     0.992671    
-0.036638    -0.025901    0.998993     -0.020394    -0.002168    0.999790    
0.018764     0.004399     0.999814     -0.005934    0.012536     0.999904    
-0.073564    0.015373     0.997172     -0.235516    -0.164296    0.957883    
0.032286     0.046290     0.998406     -0.050072    0.048389     0.997573    
-0.013055    -0.031109    0.999431     -0.021316    -0.033130    0.999224    
0.017324     -0.040040    0.999048     -0.068293    0.057442     0.996010    
0.013125     -0.004639    0.999903     -0.008982    -0.044199    0.998982    
0.014240     -0.027984    0.999507     0.783739     -0.109463    0.611369    
-0.056327    -0.163896    0.984868     -0.175151    -0.303082    0.936730    
-0.031159    0.094610     0.995027     -0.035051    0.018861     0.999207    
-0.083781    0.074429     0.993701     -0.153574    0.133501     0.979077    
0.010879     0.002250     0.999938     0.004611     -0.018899    0.999811    
-0.026130    0.027688     0.999275     -0.014664    0.030567     0.999425    
0.042029     0.066533     0.996899     -0.006765    0.071512     0.997417    
-0.044797    -0.016193    0.998865     -0.064473    -0.053087    0.996506    
0.022038     -0.008568    0.999720     0.032603     0.037853     0.998751    
0.047041     0.038431     0.998153     0.097099     0.056934     0.993645    
-0.069133    0.018203     0.997441     -0.087595    -0.023358    0.995882    
-0.026214    -0.083348    0.996176     -0.044568    -0.133566    0.990037    
0.013802     -0.044164    0.998929     0.069281     -0.032381    0.997072    
0.000004     -0.001865    0.999998     -0.023489    0.004991     0.999712    
-0.019263    0.029754     0.999372     -0.044430    0.045112     0.997993    
-0.024803    0.016703     0.999553     -0.010138    -0.027824    0.999561    
0.045780     -0.014589    0.998845     0.172122     -0.031914    0.984559    
0.039727     0.011882     0.999140     0.120903     0.099536     0.987661    
0.027516     0.010852     0.999562     -0.004973    0.018273     0.999821    
-0.026163    -0.032924    0.999115     -0.019367    -0.044356    0.998828    
-0.012507    -0.032129    0.999405     -0.000192    -0.040062    0.999197    
0.007799     -0.006175    0.999950     0.019263     0.006055     0.999796    
0.014448     0.093736     0.995492     0.269215     -0.007234    0.963053    
-0.012043    0.041049     0.999085     0.012404     0.049639     0.998690    
0.004859     -0.036252    0.999331     -0.017704    -0.168248    0.985586    
-0.008279    -0.015104    0.999852     0.022600     0.075123     0.996918    
0.060683     -0.010096    0.998106     0.068181     0.054541     0.996181    
-0.015236    0.016340     0.999750     0.155601     -0.307555    0.938722    
0.031797     -0.009192    0.999452     -0.069283    0.009706     0.997550    
-0.044466    0.022476     0.998758     0.143606     -0.204774    0.968217    
0.028751     -0.019621    0.999394     0.022548     -0.050311    0.998479    
-0.037066    0.007567     0.999284     -0.004352    -0.098826    0.995095    
