-0.001948    -0.009062    0.999957     -0.007265    -0.006098    0.999955    
0.014761     0.010909     0.999832     0.017831     0.020480     0.999631    
-0.096265    -0.052384    0.993976     -0.241206    -0.154674    0.958069    
0.023658     -0.011665    0.999652     0.041988     -0.007968    0.999086    
-0.006846    0.001394     0.999976     -0.008978    -0.008964    0.999920    
-0.008007    -0.029349    0.999537     0.009116     -0.055958    0.998391    
-0.000506    0.006762     0.999977     -0.020285    0.029297     0.999365    
-0.067835    0.004615     0.997686     -0.110250    -0.006381    0.993883    
0.043834     -0.019329    0.998852     0.051833     -0.021058    0.998434    
-0.008136    -0.002608    0.999964     -0.018980    -0.003411    0.999814    
0.023497     0.000337     0.999724     -0.123091    -0.069965    0.989926    
-0.045111    -0.034331    0.998392     0.091021     -0.512642    0.853764    
0.008106     0.008706     0.999929     0.029365     -0.014002    0.999471    
-0.032386    -0.045587    0.998435     -0.098611    -0.134420    0.986006    
-0.001812    -0.009099    0.999957     -0.010872    0.008652     0.999903    
-0.030901    0.019228     0.999337     0.025662     -0.106136    0.994020    
0.032142     0.056734     0.997872     0.006400     0.039571     0.999196    
-0.016466    -0.097263    0.995123     0.091994     -0.207417    0.973917    
-0.002184    -0.006188    0.999979     -0.011048    -0.049323    0.998722    
-0.041248    0.123544     0.991481     -0.039270    0.129357     0.990820    
-0.002657    -0.035450    0.999368     -0.039534    -0.034624    0.998618    
0.019407     -0.030946    0.999333     -0.035459    -0.033592    0.998806    
0.019257     -0.022867    0.999553     -0.008876    -0.229101    0.973362    
0.023008     -0.027841    0.999348     0.051642     -0.014325    0.998563    
-0.013983    -0.006356    0.999882     -0.027383    0.008665     0.999587    
-0.082686    -0.081235    0.993259     -0.093598    -0.054770    0.994102    
0.024763     -0.047473    0.998566     -0.189621    -0.004329    0.981848    
0.018115     -0.017144    0.999689     -0.030435    -0.110162    0.993448    
-0.021404    0.000133     0.999771     0.013665     0.003396     0.999901    
0.003868     0.010802     0.999934     0.013229     0.013985     0.999815    
-0.042111    -0.034065    0.998532     -0.025274    -0.020754    0.999465    
0.009250     -0.000807    0.999957     0.016646     0.002083     0.999859    
0.009108     0.001196     0.999958     -0.013598    0.026379     0.999559    
-0.004261    -0.002725    0.999987     -0.027999    0.040288     0.998796    
0.084889     0.115071     0.989723     0.033457     0.224510     0.973897    
0.056218     0.056046     0.996844     0.477264     -0.855688    -0.200043   
-0.008189    -0.019436    0.999778     0.021355     -0.037321    0.999075    
0.017698     0.038029     0.999120     0.080069     -0.115715    0.990050    
0.011621     0.012593     0.999853     0.038401     -0.048461    0.998087    
-0.006710    0.029428     0.999544     -0.011237    0.013426     0.999847    
-0.002963    0.012691     0.999915     0.028645     0.020643     0.999376    
0.006508     0.010259     0.999926     0.035689     -0.010488    0.999308    
-0.044405    -0.033345    0.998457     -0.041399    -0.018320    0.998975    
-0.028236    0.014940     0.999490     -0.146431    0.150731     0.977670    
-0.003477    -0.014737    0.999885     -0.225048    0.034807     0.973726    
-0.050528    -0.000630    0.998722     -0.040144    0.001135     0.999193    
-0.011050    -0.008998    0.999898     -0.168923    -0.214986    0.961897    
-0.031762    -0.020070    0.999294     0.014338     -0.033095    0.999349    
0.007851     0.002569     0.999966     0.015906     0.009261     0.999831    
0.060293     0.030433     0.997717     -0.029600    0.075607     0.996698    
0.046275     0.045664     0.997884     0.018782     0.097158     0.995092    
-0.007692    -0.015797    0.999846     0.109984     0.055267     0.992396    
0.078940     -0.012137    0.996806     0.241626     0.122437     0.962614    
0.055232     -0.124101    0.990731     0.269068     -0.218195    0.938080    
0.027537     0.016188     0.999490     0.082065     0.097727     0.991824    
0.045699     -0.003320    0.998950     0.026242     -0.046256    0.998585    
0.040043     0.080940     0.995914     -0.060934    0.112110     0.991826    
-0.056693    0.026813     0.998031     -0.072690    0.021696     0.997119    
-0.003100    0.023127     0.999728     0.132079     0.072601     0.988577    
-0.016031    -0.026253    0.999527     0.020936     -0.013693    0.999687    
0.085374     0.044674     0.995347     0.119804     -0.080059    0.989564    
0.008718     0.018177     0.999797     0.020617     0.000812     0.999787    
-0.004641    0.005608     0.999973     -0.013412    0.003029     0.999905    
0.019117     0.012482     0.999739     0.158070     0.018637     0.987252    
-0.085435    0.102048     0.991104     0.057265     0.195719     0.978987    
-0.007826    0.027670     0.999586     -0.005838    0.013228     0.999895    
0.014772     -0.022795    0.999631     0.130036     -0.044612    0.990505    
0.041854     -0.042106    0.998236     0.481061     0.008365     0.876647    
0.053208     -0.061424    0.996693     -0.149999    -0.062593    0.986703    
0.009687     0.021464     0.999723     0.030372     0.137303     0.990063    
-0.126682    0.109039     0.985932     -0.102457    0.006245     0.994718    
-0.012282    0.011720     0.999856     0.002728     0.048159     0.998836    
0.006701     0.000244     0.999978     -0.002874    -0.034902    0.999387    
0.045120     0.005258     0.998968     0.056027     0.022029     0.998186    
-0.066825    0.044089     0.996790     -0.114932    -0.137037    0.983876    
0.115862     -0.100692    0.988148     0.326180     -0.038458    0.944525    
0.011466     -0.015345    0.999817     0.018623     -0.010909    0.999767    
-0.019834    -0.007084    0.999778     -0.040543    -0.046068    0.998115    
0.065695     0.014570     0.997733     0.055269     0.069857     0.996025    
-0.042994    -0.059009    0.997331     0.140414     -0.003166    0.990088    
0.008749     0.007596     0.999933     0.003991     0.012124     0.999918    
0.005136     -0.029645    0.999547     0.003187     0.036205     0.999339    
-0.018012    -0.006141    0.999819     0.023136     -0.012225    0.999658    
0.057608     -0.019536    0.998148     0.037506     -0.000655    0.999296    
-0.002121    -0.005771    0.999981     0.031038     0.006883     0.999495    
-0.013168    0.003009     0.999909     -0.042397    -0.055414    0.997563    
-0.010988    0.001779     0.999938     -0.023103    -0.005810    0.999716    
-0.068361    0.003707     0.997654     -0.068954    -0.018714    0.997444    
-0.022268    0.016636     0.999614     -0.047178    0.092233     0.994619    
0.003287     -0.007853    0.999964     0.033955     -0.073376    0.996726    
0.023510     0.020361     0.999516     0.224370     0.039414     0.973707    
0.001244     -0.001402    0.999998     -0.000521    -0.002590    0.999997    
-0.048033    0.032108     0.998330     -0.038110    0.028053     0.998880    
0.028294     -0.009923    0.999550     -0.127780    -0.056253    0.990206    
0.029533     0.052638     0.998177     0.036584     0.054214     0.997859    
-0.039215    -0.016894    0.999088     -0.031090    -0.051159    0.998207    
-0.003890    0.018618     0.999819     0.504383     -0.098530    0.857840    
-0.002655    -0.006352    0.999976     -0.032470    -0.055659    0.997922    
-0.071777    0.026005     0.997082     -0.006017    -0.004790    0.999970    
0.017988     0.023035     0.999573     -0.011697    0.053192     0.998516    
0.034269     -0.016829    0.999271     0.295595     -0.010858    0.955252    
-0.022437    -0.032172    0.999230     -0.041235    -0.018054    0.998986    
0.004181     -0.009466    0.999946     0.011790     -0.033581    0.999366    
-0.006665    0.000391     0.999978     0.004068     0.011029     0.999931    
-0.014171    0.025424     0.999576     -0.048721    0.016936     0.998669    
0.012116     -0.027610    0.999545     0.112123     -0.073787    0.990951    
-0.076579    0.024496     0.996763     -0.021011    0.115072     0.993135    
0.059318     0.019426     0.998050     0.293138     0.086244     0.952172    
-0.007221    0.020197     0.999770     -0.014128    0.000525     0.999900    
0.000110     -0.002317    0.999997     -0.000452    -0.007919    0.999968    
-0.000761    0.011526     0.999933     0.012381     0.013181     0.999836    
0.000923     0.009444     0.999955     -0.021554    -0.022915    0.999505    
-0.053975    0.013763     0.998447     0.116259     -0.076645    0.990257    
-0.008832    -0.012129    0.999887     -0.007520    -0.104507    0.994496    
0.085014     -0.037521    0.995673     0.060188     0.070375     0.995703    
-0.022341    -0.113214    0.993319     -0.161189    -0.205921    0.965202    
0.135293     0.049670     0.989560     0.087599     0.015183     0.996040    
-0.083116    -0.019636    0.996346     -0.080336    -0.013032    0.996683    
-0.046761    -0.002613    0.998903     -0.139340    0.041915     0.989357    
-0.138636    -0.052852    0.988932     -0.078987    0.009681     0.996829    
-0.015732    -0.054564    0.998386     -0.052277    -0.117963    0.991641    
0.012230     0.007541     0.999897     0.014526     -0.224333    0.974404    
0.002789     -0.007164    0.999970     -0.020677    -0.011535    0.999720    
-0.060874    -0.026054    0.997805     -0.035582    -0.032628    0.998834    
-0.010037    -0.001065    0.999949     0.005652     0.013161     0.999897    
-0.005682    -0.005240    0.999970     -0.032304    -0.200542    0.979152    
-0.015852    0.016207     0.999743     -0.006325    0.016990     0.999836    
0.035023     -0.004198    0.999378     0.024758     0.045580     0.998654    
0.013456     0.109108     0.993939     0.167510     -0.307150    0.936803    
-0.001454    0.005084     0.999986     -0.002492    0.000398     0.999997    
-0.009625    -0.009525    0.999908     -0.007679    -0.007967    0.999939    
0.016449     -0.004432    0.999855     0.062963     -0.002113    0.998014    
0.009027     0.005730     0.999943     0.069320     -0.049401    0.996371    
-0.037894    0.011169     0.999219     -0.029936    -0.004677    0.999541    
0.032782     0.042508     0.998558     0.017600     -0.058140    0.998153    
0.000481     -0.008468    0.999964     -0.006544    -0.005963    0.999961    
0.000289     -0.009323    0.999956     -0.004669    0.067241     0.997726    
-0.050874    0.039202     0.997935     -0.092217    -0.011629    0.995671    
0.010169     0.012875     0.999865     0.028951     0.041925     0.998701    
-0.042973    0.114326     0.992513     -0.152751    -0.830923    0.535009    
-0.007253    0.016649     0.999835     0.006127     0.069136     0.997589    
-0.006022    -0.023852    0.999697     -0.041730    0.005080     0.999116    
-0.017870    -0.034972    0.999229     -0.038375    0.063459     0.997246    
-0.046499    0.044032     0.997947     0.012228     0.024738     0.999619    
0.007641     0.076929     0.997007     -0.017103    0.087849     0.995987    
-0.033470    -0.003499    0.999434     -0.034116    -0.042570    0.998511    
-0.009260    0.009239     0.999914     -0.039006    -0.002565    0.999236    
0.011124     0.006366     0.999918     0.013618     0.019406     0.999719    
0.015227     -0.019443    0.999695     0.032654     0.006736     0.999444    
-0.016757    -0.033396    0.999302     -0.039726    -0.083790    0.995691    
-0.111392    -0.159612    0.980875     -0.176128    -0.082464    0.980907    
0.000405     0.013413     0.999910     0.030290     0.023549     0.999264    
0.008980     -0.073423    0.997260     0.035735     -0.085598    0.995689    
0.145754     -0.015594    0.989198     -0.125528    0.110130     0.985959    
-0.017557    0.095830     0.995243     0.077969     -0.348848    0.933930    
-0.084291    0.049646     0.995204     -0.306717    0.082044     0.948258    
0.003990     -0.036737    0.999317     0.085818     0.043933     0.995342    
-0.002528    -0.005777    0.999980     -0.018573    -0.063232    0.997826    
0.004501     -0.013755    0.999895     0.040043     -0.005244    0.999184    
-0.006200    -0.030339    0.999520     -0.116316    -0.097308    0.988434    
0.136068     0.034325     0.990105     0.071439     0.058162     0.995748    
0.041545     -0.026095    0.998796     0.037921     0.001127     0.999280    
-0.006684    0.002457     0.999975     -0.003921    0.012853     0.999910    
0.011589     -0.004158    0.999924     0.024474     0.020480     0.999491    
0.004954     0.006674     0.999965     0.007909     0.001518     0.999968    
-0.010258    -0.001972    0.999945     -0.037903    -0.002080    0.999279    
0.028505     0.054865     0.998087     -0.094545    0.004295     0.995511    
-0.007990    -0.016486    0.999832     0.007349     -0.001730    0.999972    
0.005686     -0.014335    0.999881     0.044149     -0.006781    0.999002    
-0.083801    0.017009     0.996337     -0.575510    0.032180     0.817161    
0.006762     0.004840     0.999965     0.014248     0.003922     0.999891    
-0.023286    -0.025972    0.999391     -0.019032    -0.111731    0.993556    
0.069450     -0.023334    0.997313     0.080496     0.127481     0.988569    
-0.021819    0.019335     0.999575     -0.067455    0.053816     0.996270    
0.090745     -0.031462    0.995377     0.140588     0.035152     0.989444    
0.060937     -0.087657    0.994285     0.063933     -0.084936    0.994333    
-0.042180    0.008590     0.999073     -0.025824    -0.048407    0.998494    
0.006583     -0.021719    0.999742     0.021040     -0.020161    0.999575    
0.058410     0.014297     0.998190     0.027368     -0.064023    0.997573    
-0.005890    0.005670     0.999967     -0.017193    -0.003061    0.999848    
-0.011194    0.022389     0.999687     0.003443     0.030861     0.999518    
0.064173     -0.008450    0.997903     0.160062     -0.088088    0.983169    
0.027497     0.007168     0.999596     -0.036191    -0.058335    0.997641    
-0.021883    -0.061506    0.997867     0.011528     -0.041612    0.999067    
0.072577     -0.081786    0.994004     0.039204     -0.122102    0.991743    
0.045085     -0.024500    0.998683     0.064369     -0.045191    0.996902    
-0.030922    -0.007765    0.999492     -0.031377    0.014081     0.999408    
-0.044067    -0.033208    0.998477     -0.449124    -0.660603    0.601574    
0.095863     -0.043862    0.994428     0.084968     -0.032213    0.995863    
0.021615     -0.028705    0.999354     0.021115     -0.013384    0.999687    
0.014080     -0.004581    0.999890     0.220300     -0.084270    0.971785    
-0.034115    0.016806     0.999277     -0.049653    0.041637     0.997898    
-0.003299    -0.011151    0.999932     -0.016847    0.026017     0.999520    
-0.048833    0.010193     0.998755     -0.095949    0.044246     0.994402    
0.007278     0.016810     0.999832     -0.043283    0.070195     0.996594    
0.045491     0.106260     0.993297     0.027950     0.023170     0.999341    
0.012050     -0.025747    0.999596     -0.042446    -0.194400    0.980004    
0.040131     -0.052620    0.997808     0.108986     -0.005471    0.994028    
0.019126     0.016319     0.999684     -0.095529    -0.120174    0.988146    
0.022727     -0.006375    0.999721     0.033359     0.027017     0.999078    
0.048357     -0.031263    0.998341     -0.000884    -0.181627    0.983367    
0.114848     0.116156     0.986569     0.313906     -0.315036    0.895665    
0.095609     0.051469     0.994087     0.128791     0.054872     0.990153    
-0.008515    -0.015590    0.999842     0.012770     -0.005783    0.999902    
0.019619     -0.011875    0.999737     0.040432     -0.011796    0.999113    
0.003355     0.003432     0.999989     0.005670     0.025088     0.999669    
0.004273     0.022909     0.999728     -0.002115    -0.008801    0.999959    
-0.002745    0.006473     0.999975     -0.029106    0.010114     0.999525    
0.001724     -0.010213    0.999946     -0.014961    0.015265     0.999772    
0.103477     0.002855     0.994628     0.321741     0.162348     0.932805    
-0.057690    0.074665     0.995539     0.016544     -0.105713    0.994259    
0.001372     -0.010121    0.999948     0.003932     -0.000202    0.999992    
-0.018928    0.002167     0.999818     -0.024456    -0.003319    0.999695    
0.149204     -0.038116    0.988072     -0.523943    0.049951     0.850287    
-0.001035    0.004212     0.999991     -0.019485    0.044716     0.998810    
0.002761     0.007246     0.999970     0.005665     -0.002808    0.999980    
0.008586     -0.014605    0.999856     0.026515     -0.005708    0.999632    
-0.069598    0.036393     0.996911     -0.041199    -0.040101    0.998346    
0.048874     0.004512     0.998795     0.126914     -0.122419    0.984330    
-0.004569    0.006182     0.999970     -0.019833    -0.001990    0.999801    
0.035289     -0.011504    0.999311     -0.014292    -0.021152    0.999674    
-0.010348    0.011521     0.999880     -0.018902    0.017552     0.999667    
-0.001918    0.069128     0.997606     -0.208415    0.210163     0.955193    
0.009744     0.013562     0.999861     0.001589     0.050731     0.998711    
-0.031975    -0.021274    0.999262     0.023133     -0.078362    0.996656    
0.038210     0.014257     0.999168     0.041381     0.011028     0.999083    
0.001409     0.026791     0.999640     -0.003826    0.066426     0.997784    
0.021532     0.016558     0.999631     0.058810     0.118154     0.991252    
0.046483     0.001117     0.998918     -0.022209    0.106648     0.994049    
-0.019583    0.025796     0.999475     -0.014964    -0.057395    0.998239    
0.005625     -0.000873    0.999984     -0.001696    0.006149     0.999980    
-0.003231    0.010456     0.999940     -0.020137    0.121106     0.992435    
0.030624     -0.016519    0.999394     -0.019075    0.067769     0.997519    
-0.013822    0.051126     0.998596     0.103349     -0.009461    0.994600    
-0.024165    0.009518     0.999663     0.001902     -0.033690    0.999430    
0.047153     0.028809     0.998472     0.181600     0.022164     0.983123    
-0.004532    0.061919     0.998071     0.209854     0.146966     0.966624    
-0.014575    -0.024787    0.999586     -0.020160    -0.003155    0.999792    
0.001434     0.002755     0.999995     0.018850     -0.003026    0.999818    
0.024985     0.105479     0.994108     -0.013898    0.031902     0.999394    
0.032522     -0.031100    0.998987     0.037719     -0.065812    0.997119    
0.018969     0.004930     0.999808     0.005029     0.014820     0.999878    
0.004638     -0.002610    0.999986     0.013118     0.060313     0.998093    
0.008002     -0.014859    0.999858     -0.003370    -0.031713    0.999491    
0.041618     -0.000923    0.999133     0.117140     0.109068     0.987108    
0.042454     -0.026130    0.998757     0.098924     0.215747     0.971425    
0.012475     -0.019284    0.999736     0.030530     -0.084346    0.995969    
0.003564     -0.002302    0.999991     0.759365     0.056926     0.648170    
0.001496     0.000695     0.999999     0.002226     0.013745     0.999903    
-0.027809    0.040574     0.998789     -0.145156    -0.153292    0.977462    
0.059994     0.032570     0.997667     0.083737     0.030702     0.996015    
-0.039164    -0.022256    0.998985     -0.111884    0.102980     0.988371    
-0.004401    0.017878     0.999831     -0.021512    0.046896     0.998668    
0.054927     -0.005433    0.998476     -0.006529    0.000318     0.999979    
-0.038563    -0.009601    0.999210     0.227163     0.026964     0.973483    
-0.005737    -0.018851    0.999806     0.055163     0.012316     0.998401    
-0.054217    0.026302     0.998183     -0.047559    0.053234     0.997449    
-0.002343    -0.001868    0.999996     -0.001259    -0.034818    0.999393    
-0.049229    -0.037458    0.998085     -0.055941    -0.118447    0.991383    
0.040920     0.009588     0.999116     0.105262     0.016856     0.994302    
-0.029893    -0.022502    0.999300     -0.078184    -0.020473    0.996729    
-0.017078    -0.007779    0.999824     -0.113108    0.013677     0.993488    
0.006950     -0.004097    0.999967     0.012508     -0.023534    0.999645    
0.088172     0.018710     0.995930     0.212371     0.224695     0.951005    
0.021814     0.044225     0.998783     -0.076346    0.129140     0.988683    
0.007844     -0.000181    0.999969     0.008229     0.006985     0.999942    
-0.000778    0.018239     0.999833     0.001631     0.038344     0.999263    
0.016468     0.011508     0.999798     -0.008810    0.025106     0.999646    
-0.037601    -0.009936    0.999243     -0.071977    -0.018872    0.997228    
-0.004497    0.013250     0.999902     -0.007257    0.031431     0.999480    
-0.019402    0.029907     0.999364     0.044974     -0.014047    0.998889    
0.072210     -0.048209    0.996224     0.104152     0.019256     0.994375    
0.005898     0.016034     0.999854     -0.015041    0.002393     0.999884    
0.022475     0.142802     0.989496     0.229120     0.012313     0.973320    
-0.008523    0.030019     0.999513     -0.106116    0.090748     0.990204    
0.005056     -0.016134    0.999857     0.125690     -0.101663    0.986847    
0.003025     0.033964     0.999418     -0.024947    0.078935     0.996568    
0.005107     0.017030     0.999842     0.028688     0.010728     0.999531    
-0.060870    -0.086683    0.994375     -0.312036    -0.000433    0.950070    
0.012138     0.012162     0.999852     0.021578     0.026184     0.999424    
0.014623     0.011795     0.999823     -0.034061    -0.026186    0.999077    
-0.018744    0.013146     0.999738     -0.035283    0.000902     0.999377    
-0.107555    -0.035658    0.993559     -0.067023    -0.085741    0.994061    
0.013307     -0.003921    0.999904     0.025805     -0.014003    0.999569    
-0.155842    -0.048963    0.986568     -0.039864    -0.215499    0.975690    
0.039505     -0.020076    0.999018     -0.113650    0.128603     0.985162    
-0.044874    0.027248     0.998621     -0.027049    -0.097280    0.994890    
0.034936     0.030254     0.998932     -0.047371    0.255187     0.965731    
-0.053105    0.057076     0.996956     -0.079975    -0.022043    0.996553    
0.002413     -0.001374    0.999996     0.000253     -0.001304    0.999999    
0.015278     -0.066110    0.997695     -0.070996    -0.044117    0.996501    
-0.016832    -0.015673    0.999736     -0.024763    0.033086     0.999146    
0.004996     0.059157     0.998236     -0.040604    0.023219     0.998906    
-0.009226    -0.017254    0.999809     0.011306     -0.042084    0.999050    
0.094021     -0.066711    0.993333     0.194778     -0.173136    0.965446    
0.032423     0.032993     0.998930     0.093331     0.018478     0.995464    
0.082979     -0.039563    0.995766     0.116063     -0.015630    0.993119    
0.007339     -0.005970    0.999955     -0.045240    -0.020039    0.998775    
-0.020229    0.035008     0.999182     0.136524     -0.163577    0.977038    
0.026099     -0.010419    0.999605     0.056677     0.020728     0.998177    
0.023751     0.013017     0.999633     -0.081064    -0.138795    0.986998    
0.000809     0.005155     0.999986     -0.021661    -0.034030    0.999186    
0.051609     -0.026436    0.998317     -0.186064    0.149665     0.971072    
-0.019021    -0.032627    0.999287     0.300277     -0.043655    0.952852    
-0.018834    -0.001445    0.999822     -0.029323    -0.008351    0.999535    
0.005400     -0.008463    0.999950     0.006328     0.003616     0.999973    
0.011764     -0.062980    0.997945     0.048313     -0.061496    0.996937    
0.012700     -0.008233    0.999885     -0.003197    -0.104441    0.994526    
0.021578     -0.115439    0.993080     0.223449     -0.113768    0.968053    
0.014241     0.016844     0.999757     0.057276     0.045001     0.997344    
-0.033317    0.053893     0.997991     -0.043154    0.149672     0.987794    
-0.002910    -0.014550    0.999890     0.006654     -0.049054    0.998774    
-0.061438    -0.001681    0.998109     -0.095364    0.004767     0.995431    
-0.001455    -0.035978    0.999351     -0.014906    0.054397     0.998408    
0.028490     -0.006470    0.999573     0.038888     0.010194     0.999192    
-0.025031    -0.020470    0.999477     -0.000363    -0.032193    0.999482    
0.056826     0.052563     0.996999     0.025465     0.051152     0.998366    
0.024520     -0.071233    0.997158     0.039602     0.004726     0.999204    
0.013494     -0.007753    0.999879     -0.055662    0.083976     0.994912    
0.036038     -0.008906    0.999311     0.078844     -0.046577    0.995798    
-0.014211    0.007772     0.999869     0.039638     -0.045539    0.998176    
-0.010145    -0.001038    0.999948     -0.117481    0.118863     0.985936    
0.005920     0.011152     0.999920     -0.055621    0.041905     0.997572    
0.007044     -0.013642    0.999882     0.017851     0.010214     0.999789    
0.046402     0.006338     0.998903     -0.036706    0.103217     0.993981    
-0.006095    0.010131     0.999930     -0.002632    0.014887     0.999886    
-0.020019    0.041201     0.998950     -0.075185    -0.025749    0.996837    
0.002812     -0.003308    0.999991     0.044331     -0.019874    0.998819    
0.015424     -0.016867    0.999739     0.021903     0.012250     0.999685    
-0.060430    0.001296     0.998172     -0.035402    0.000561     0.999373    
-0.065129    0.007265     0.997850     -0.122745    0.098559     0.987532    
0.065684     0.053449     0.996408     0.088345     0.005277     0.996076    
0.030869     -0.018255    0.999357     0.007853     -0.036574    0.999300    
-0.006274    -0.015204    0.999865     0.014953     -0.039455    0.999110    
0.042375     -0.020246    0.998897     0.014910     -0.022920    0.999626    
0.001494     -0.013210    0.999912     0.071342     -0.010166    0.997400    
0.008358     -0.041696    0.999095     0.008527     -0.029351    0.999533    
0.017250     0.027363     0.999477     -0.050638    -0.032933    0.998174    
-0.008243    0.008525     0.999930     -0.032031    0.035553     0.998854    
-0.068569    -0.080878    0.994363     -0.010602    -0.129294    0.991550    
-0.015008    0.029254     0.999459     0.197766     0.566544     0.799948    
0.012307     -0.000363    0.999924     -0.017316    -0.000308    0.999850    
-0.028598    0.002664     0.999587     -0.008412    0.007613     0.999936    
-0.049006    0.052512     0.997417     -0.119357    0.054777     0.991339    
0.000817     -0.007511    0.999971     0.019449     0.127394     0.991662    
-0.002167    -0.041690    0.999128     -0.215165    0.014413     0.976471    
0.009662     0.003121     0.999948     0.020761     0.012725     0.999704    
0.018340     0.040775     0.999000     0.060885     -0.005181    0.998131    
-0.044229    0.044590     0.998026     -0.080759    0.033450     0.996172    
0.062311     0.043366     0.997114     0.007034     0.082194     0.996591    
0.002435     -0.036074    0.999346     0.008799     -0.053999    0.998502    
-0.028490    -0.017082    0.999448     -0.056344    -0.095532    0.993830    
0.016606     0.001694     0.999861     0.013476     0.001746     0.999908    
0.008220     -0.035766    0.999326     -0.044438    -0.001448    0.999011    
0.006711     -0.053170    0.998563     0.016463     0.118070     0.992869    
-0.012150    -0.001344    0.999925     0.000396     -0.013040    0.999915    
-0.046616    0.028047     0.998519     0.011465     0.115572     0.993233    
-0.083174    -0.135288    0.987309     0.956097     -0.094859    -0.277271   
0.012242     -0.012631    0.999845     -0.121027    -0.402796    0.907253    
-0.023541    0.027052     0.999357     -0.039498    0.049808     0.997977    
0.012704     -0.051167    0.998609     0.005123     -0.041370    0.999131    
0.006183     -0.016270    0.999849     0.002182     0.000392     0.999998    
-0.014149    0.003175     0.999895     -0.036517    0.025987     0.998995    
0.007211     -0.008926    0.999934     0.003903     -0.001405    0.999991    
-0.029280    0.052114     0.998212     0.008300     -0.061834    0.998052    
-0.001072    0.012399     0.999923     0.006720     0.032837     0.999438    
0.007070     0.033262     0.999422     0.020057     0.169916     0.985254    
-0.085176    -0.067168    0.994099     -0.221559    -0.323847    0.919801    
0.034169     -0.040321    0.998602     0.087389     -0.048642    0.994986    
-0.040616    -0.015674    0.999052     -0.326412    0.437142     0.838071    
0.002050     -0.014805    0.999888     0.006272     -0.000715    0.999980    
0.046042     -0.035628    0.998304     0.056887     -0.077305    0.995383    
0.012523     -0.010222    0.999869     0.011291     -0.034837    0.999329    
0.066661     -0.017676    0.997619     0.148447     -0.100787    0.983771    
0.027669     -0.047335    0.998496     0.032426     -0.027494    0.999096    
0.078840     -0.010288    0.996834     0.155954     0.052933     0.986345    
-0.005213    0.064489     0.997905     0.004725     0.066838     0.997753    
0.001835     0.000753     0.999998     0.008602     -0.015931    0.999836    
-0.068581    0.039390     0.996868     -0.151922    0.222750     0.962965    
-0.012353    0.020089     0.999722     -0.055279    -0.015984    0.998343    
0.138860     -0.136294    0.980888     -0.147251    -0.310534    0.939088    
0.034425     -0.049718    0.998170     0.201581     -0.031787    0.978956    
-0.008300    -0.024358    0.999669     -0.030680    -0.023813    0.999246    
-0.009912    0.015787     0.999826     0.028257     0.033741     0.999031    
0.107100     -0.054232    0.992768     0.083794     -0.060895    0.994621    
0.001384     -0.072409    0.997374     -0.292510    -0.258955    0.920533    
-0.009412    -0.027109    0.999588     -0.018549    0.000602     0.999828    
-0.039728    0.011611     0.999143     -0.022663    0.045652     0.998700    
-0.005027    -0.002506    0.999984     -0.013293    -0.003373    0.999906    
0.006776     -0.038660    0.999229     0.013424     -0.017451    0.999758    
0.006540     -0.044777    0.998976     0.038778     -0.041789    0.998374    
0.075348     -0.003117    0.997152     0.080494     0.043418     0.995809    
0.009308     0.012654     0.999877     -0.000129    0.010164     0.999948    
-0.126357    -0.102416    0.986684     -0.236274    -0.251828    0.938487    
-0.021631    -0.007607    0.999737     -0.004897    -0.083988    0.996455    
-0.021671    -0.006007    0.999747     -0.043564    0.019540     0.998860    
-0.006527    -0.007739    0.999949     -0.028619    -0.054801    0.998087    
0.000030     -0.013848    0.999904     -0.011538    -0.009119    0.999892    
-0.005867    -0.017145    0.999836     -0.023195    -0.005038    0.999718    
0.045349     0.014805     0.998861     0.028079     -0.006793    0.999583    
0.045399     0.028172     0.998572     0.046501     0.033193     0.998367    
-0.010760    -0.036246    0.999285     -0.078413    0.086633     0.993150    
-0.022901    0.041439     0.998879     -0.367381    0.149587     0.917962    
-0.003341    -0.022519    0.999741     -0.027653    -0.053579    0.998181    
-0.007717    0.028175     0.999573     0.028669     0.029920     0.999141    
0.004783     -0.007880    0.999958     0.024013     0.033291     0.999157    
-0.010843    0.026802     0.999582     0.012116     0.083110     0.996467    
0.024303     0.059269     0.997946     0.069255     0.030021     0.997147    
0.014972     -0.179587    0.983628     0.310161     -0.072573    0.947910    
-0.004269    -0.004544    0.999981     -0.062156    -0.017080    0.997920    
0.092030     -0.039465    0.994974     0.173833     0.034610     0.984167    
-0.015220    -0.032264    0.999364     0.045233     0.052701     0.997585    
0.003744     0.006920     0.999969     0.114123     -0.002178    0.993464    
0.003328     0.081699     0.996651     0.009172     -0.106830    0.994235    
-0.032315    0.000472     0.999478     -0.079354    0.039152     0.996077    
0.007290     0.000659     0.999973     0.075715     0.111320     0.990896    
0.044264     0.001733     0.999018     0.074401     0.027702     0.996844    
0.080624     0.102248     0.991486     0.330319     -0.331180    0.883860    
0.017975     -0.060290    0.998019     0.011446     0.114673     0.993337    
0.007211     -0.022338    0.999725     0.030324     -0.021355    0.999312    
-0.089895    -0.002328    0.995949     0.035117     0.091783     0.995160    
-0.025001    0.028881     0.999270     0.003375     0.022375     0.999744    
-0.006394    -0.023740    0.999698     0.064576     -0.057575    0.996251    
-0.059040    0.048832     0.997061     -0.071725    0.198924     0.977387    
0.026095     0.082430     0.996255     0.052644     0.125887     0.990647    
-0.010200    -0.005951    0.999930     -0.015144    -0.018546    0.999713    
-0.000432    -0.000568    1.000000     0.041135     -0.044299    0.998171    
0.017248     -0.002322    0.999849     -0.004569    0.008268     0.999955    
-0.058224    -0.003763    0.998296     -0.082379    -0.006065    0.996583    
0.049069     -0.034939    0.998184     0.110189     0.000937     0.993910    
-0.062629    -0.097372    0.993275     -0.068118    -0.238333    0.968792    
0.058702     -0.089626    0.994244     -0.038805    -0.261441    0.964439    
-0.015497    0.005912     0.999862     0.028854     -0.025901    0.999248    
-0.029727    -0.056709    0.997948     -0.076291    -0.051916    0.995733    
-0.041936    -0.065268    0.996986     -0.045047    -0.079167    0.995843    
0.002521     0.008203     0.999963     -0.001791    -0.017654    0.999842    
-0.017504    0.015153     0.999732     0.041556     0.010969     0.999076    
-0.008453    -0.003119    0.999959     0.432220     -0.135401    0.891545    
-0.027925    -0.026327    0.999263     -0.016856    -0.019205    0.999673    
0.057061     -0.032348    0.997846     0.069378     -0.082447    0.994178    
-0.001989    -0.088156    0.996105     -0.026378    -0.075169    0.996822    
0.011912     0.065572     0.997777     0.228900     -0.050151    0.972157    
-0.004781    0.010329     0.999935     -0.006300    0.034269     0.999393    
-0.041574    -0.094176    0.994687     0.024183     -0.037190    0.999016    
0.017129     -0.008495    0.999817     -0.093577    0.001103     0.995611    
0.025890     -0.010435    0.999610     0.052601     -0.024528    0.998314    
0.024324     -0.042355    0.998806     -0.099947    -0.112382    0.988626    
-0.076895    -0.073112    0.994355     -0.120840    -0.122816    0.985045    
0.008519     0.032096     0.999448     0.076386     0.072063     0.994471    
-0.015626    -0.086982    0.996087     -0.068337    -0.085389    0.994001    
0.048939     -0.086696    0.995032     0.019226     -0.122719    0.992255    
0.001282     -0.004217    0.999990     -0.016530    -0.001367    0.999862    
-0.004203    0.023188     0.999722     -0.013503    -0.011798    0.999839    
0.010085     -0.003696    0.999942     0.013163     -0.026593    0.999560    
0.022555     0.024665     0.999441     0.044436     -0.031921    0.998502    
0.012620     0.007969     0.999889     0.031983     0.011575     0.999421    
-0.008075    -0.002495    0.999964     -0.022415    -0.011090    0.999687    
0.019811     0.008083     0.999771     0.007421     0.046518     0.998890    
-0.008150    -0.004132    0.999958     -0.013862    -0.001388    0.999903    
0.018957     0.032025     0.999307     0.042884     0.061553     0.997182    
0.032760     0.048125     0.998304     0.031407     0.023439     0.999232    
-0.082561    -0.045050    0.995567     -0.113563    -0.029608    0.993089    
-0.005976    -0.012839    0.999900     0.025919     -0.047002    0.998559    
0.012379     0.022527     0.999670     0.046646     0.009764     0.998864    
0.018579     -0.085937    0.996127     0.065391     -0.213516    0.974749    
-0.018344    0.012881     0.999749     -0.063970    0.017453     0.997799    
-0.008927    0.048187     0.998799     -0.062619    0.037159     0.997345    
0.006323     0.021218     0.999755     -0.005851    0.024756     0.999676    
-0.043878    0.052738     0.997644     -0.074259    0.045210     0.996214    
0.019395     -0.009063    0.999771     -0.047502    -0.055016    0.997355    
-0.016514    -0.172089    0.984943     -0.159579    -0.131966    0.978325    
0.027736     -0.011489    0.999549     -0.019254    0.032231     0.999295    
0.052990     -0.052479    0.997215     0.022106     -0.056594    0.998153    
0.001665     0.006818     0.999975     -0.023476    -0.008356    0.999689    
0.011302     0.020888     0.999718     0.133716     0.098787     0.986084    
-0.009427    0.003085     0.999951     -0.008692    0.022270     0.999714    
0.034381     -0.017429    0.999257     0.146425     -0.366293    0.918906    
0.010304     -0.008052    0.999914     0.009114     -0.010169    0.999907    
-0.009383    0.021851     0.999717     -0.024347    0.056247     0.998120    
-0.004859    -0.001010    0.999988     -0.064467    0.070850     0.995402    
-0.080459    0.044387     0.995769     -0.089646    -0.014087    0.995874    
-0.006832    0.000115     0.999977     0.014344     0.010180     0.999845    
0.067697     -0.000870    0.997705     0.078141     0.028276     0.996541    
0.038893     0.019767     0.999048     0.160550     -0.216007    0.963102    
-0.038886    0.016160     0.999113     -0.031298    0.037106     0.998821    
-0.010078    -0.043853    0.998987     0.037658     0.060932     0.997431    
-0.121534    0.026791     0.992226     -0.251003    -0.020139    0.967777    
-0.032236    -0.009452    0.999436     -0.103050    -0.023884    0.994389    
0.031068     -0.007276    0.999491     0.048190     0.010524     0.998783    
0.042469     0.009805     0.999050     -0.272400    0.035208     0.961540    
0.011765     -0.012224    0.999856     0.194125     0.057536     0.979288    
-0.024374    0.071831     0.997119     0.268453     -0.006029    0.963274    
-0.005391    -0.008280    0.999951     0.001710     0.007534     0.999970    
0.021939     -0.020365    0.999552     0.040347     -0.005378    0.999171    
0.025804     -0.018085    0.999503     0.025679     -0.003764    0.999663    
-0.010118    -0.001137    0.999948     -0.084556    0.093077     0.992062    
0.008589     -0.034579    0.999365     0.014902     -0.054101    0.998424    
-0.035868    0.001870     0.999355     -0.049954    0.136929     0.989320    
0.004412     0.003150     0.999985     0.010734     -0.005561    0.999927    
0.020965     0.012973     0.999696     0.041721     -0.000775    0.999129    
-0.018108    -0.086220    0.996112     -0.051682    -0.141215    0.988629    
0.015283     -0.017457    0.999731     0.016484     -0.030847    0.999388    
-0.014715    -0.010142    0.999840     -0.031062    -0.008939    0.999477    
-0.020966    -0.014864    0.999670     -0.032372    -0.014858    0.999365    
0.032413     0.052578     0.998091     0.059392     0.022666     0.997977    
0.108122     -0.243921    0.963749     0.138237     -0.989027    0.052115    
-0.011520    -0.010213    0.999882     0.000687     -0.015342    0.999882    
0.008336     -0.029785    0.999522     0.011613     0.011142     0.999871    
-0.017793    -0.004048    0.999834     -0.017032    0.020652     0.999642    
0.009081     0.030413     0.999496     0.054716     0.021507     0.998270    
0.026960     0.048560     0.998456     -0.034628    -0.945595    0.323497    
-0.038962    -0.048196    0.998078     0.037295     -0.027451    0.998927    
-0.028744    -0.029411    0.999154     -0.035084    -0.051559    0.998053    
0.124933     0.091475     0.987939     0.281761     -0.084811    0.955729    
-0.006687    0.006103     0.999959     -0.007042    0.026540     0.999623    
0.002354     -0.117007    0.993128     0.067765     -0.184157    0.980558    
-0.002982    0.006395     0.999975     -0.034693    -0.025333    0.999077    
-0.035143    0.028667     0.998971     -0.155450    0.107401     0.981988    
0.014791     -0.006563    0.999869     -0.001829    0.013854     0.999902    
0.016752     0.026376     0.999512     -0.001520    0.023568     0.999721    
-0.073446    0.055549     0.995751     -0.204121    -0.263511    0.942813    
-0.051789    -0.090740    0.994527     -0.096142    0.073747     0.992632    
-0.021472    -0.006706    0.999747     -0.086186    0.091005     0.992114    
0.008326     0.000681     0.999965     -0.000516    -0.014834    0.999890    
0.009104     -0.011337    0.999894     0.031857     0.000989     0.999492    
0.014274     0.015039     0.999785     0.013673     0.021841     0.999668    
-0.142028    0.004326     0.989853     -0.230778    0.061377     0.971069    
0.052569     -0.013410    0.998527     -0.107224    -0.011648    0.994167    
-0.005400    -0.006591    0.999964     -0.047118    -0.006205    0.998870    
0.010974     -0.017653    0.999784     -0.060218    -0.033738    0.997615    
0.014294     -0.011996    0.999826     -0.000796    -0.008762    0.999961    
0.032086     -0.102731    0.994192     0.093276     -0.274200    0.957138    
0.087987     0.011319     0.996057     0.026903     -0.210139    0.977301    
-0.030449    0.020701     0.999322     -0.276101    -0.023182    0.960849    
0.061032     0.001227     0.998135     0.083607     -0.028458    0.996092    
-0.037539    0.014879     0.999184     0.006253     0.006484     0.999959    
0.006496     -0.000008    0.999979     0.012339     -0.006325    0.999904    
0.011145     -0.017845    0.999779     0.135269     -0.014600    0.990701    
-0.067683    -0.103012    0.992375     -0.102760    -0.116793    0.987826    
0.043953     -0.064969    0.996919     0.201535     0.001617     0.979480    
-0.053050    0.019220     0.998407     -0.104315    0.243314     0.964322    
0.032126     -0.013181    0.999397     -0.067331    -0.101524    0.992552    
-0.013696    -0.032293    0.999385     -0.195916    -0.109781    0.974456    
0.041824     0.004625     0.999114     0.099664     0.032776     0.994481    
0.024848     0.004843     0.999680     0.017318     -0.039409    0.999073    
0.066100     -0.044455    0.996822     0.064525     -0.117198    0.991010    
0.056386     -0.027699    0.998025     0.144065     0.107472     0.983715    
-0.053303    -0.024076    0.998288     -0.084364    -0.039317    0.995659    
-0.124092    0.058633     0.990537     -0.157754    0.082867     0.983995    
0.003815     0.002929     0.999988     -0.005289    -0.197498    0.980289    
-0.013544    -0.047403    0.998784     0.062610     -0.050813    0.996744    
0.016849     -0.064635    0.997767     0.073125     -0.082515    0.993903    
0.062455     0.020373     0.997840     0.106766     -0.093674    0.989862    
-0.002277    -0.041587    0.999132     0.072880     -0.161183    0.984230    
0.014597     -0.045845    0.998842     -0.226750    -0.117509    0.966838    
0.046730     -0.028481    0.998501     0.073497     -0.001116    0.997295    
-0.057933    0.015399     0.998202     -0.011928    -0.051591    0.998597    
0.012207     -0.002297    0.999923     0.090743     -0.057454    0.994216    
-0.025374    -0.037648    0.998969     -0.162766    -0.045413    0.985619    
0.002817     0.001563     0.999995     0.008787     0.004799     0.999950    
0.032495     -0.061531    0.997576     0.062699     -0.047354    0.996908    
-0.000314    -0.009139    0.999958     -0.005137    -0.022229    0.999740    
0.026529     -0.017276    0.999499     0.035588     -0.049190    0.998155    
0.015881     -0.007374    0.999847     0.026506     0.002794     0.999645    
-0.038957    0.031030     0.998759     0.160914     0.457237     0.874666    
0.029806     -0.026438    0.999206     0.022224     -0.040646    0.998926    
-0.023290    0.008651     0.999691     -0.033658    0.025660     0.999104    
0.017515     -0.167533    0.985711     -0.066096    0.162762     0.984449    
-0.005384    0.027006     0.999621     0.048166     0.021025     0.998618    
-0.030512    -0.020685    0.999320     -0.133465    -0.034416    0.990456    
-0.005475    -0.003341    0.999979     0.011326     0.039386     0.999160    
0.043154     -0.004211    0.999060     0.002394     -0.164116    0.986438    
-0.016486    -0.028309    0.999463     -0.003408    -0.021627    0.999760    
0.018668     -0.010510    0.999771     0.028941     0.011082     0.999520    
-0.044004    -0.032810    0.998492     -0.088522    0.043343     0.995131    
-0.004636    0.045646     0.998947     -0.043798    -0.005116    0.999027    
-0.031413    0.013536     0.999415     -0.075236    0.025741     0.996833    
-0.023829    0.040843     0.998881     -0.067236    0.074382     0.994961    
0.071528     0.027371     0.997063     -0.024930    0.019949     0.999490    
-0.016494    -0.105485    0.994284     0.007195     -0.177140    0.984159    
0.010087     0.012371     0.999873     0.034979     0.032668     0.998854    
-0.022092    0.016672     0.999617     -0.013211    0.018877     0.999735    
0.058341     -0.023651    0.998017     0.045081     -0.091975    0.994740    
-0.036792    -0.055018    0.997807     -0.041484    -0.072123    0.996533    
0.006021     -0.012281    0.999906     -0.006923    -0.053978    0.998518    
-0.012618    -0.005931    0.999903     0.000852     -0.000249    1.000000    
-0.010355    -0.036794    0.999269     0.051604     -0.004664    0.998657    
-0.015820    -0.005751    0.999858     -0.278755    0.029614     0.959906    
-0.003310    0.025340     0.999673     -0.013903    0.006570     0.999882    
0.003900     -0.010332    0.999939     0.004158     -0.000719    0.999991    
0.020277     0.006693     0.999772     0.015341     0.022059     0.999639    
0.075080     0.031227     0.996688     0.054991     0.010944     0.998427    
-0.025987    -0.071201    0.997123     -0.139983    -0.118999    0.982977    
-0.206340    -0.033338    0.977912     -0.351365    -0.522839    0.776648    
0.010732     -0.019208    0.999758     0.039483     0.024197     0.998927    
0.000931     -0.006435    0.999979     0.045434     -0.011876    0.998897    
0.055878     -0.076361    0.995513     0.031706     -0.010469    0.999442    
-0.016069    -0.023908    0.999585     -0.180683    -0.076741    0.980543    
-0.021480    -0.019946    0.999570     -0.093342    -0.034654    0.995031    
-0.038299    -0.043636    0.998313     -0.048481    -0.016772    0.998683    
-0.053038    -0.017517    0.998439     0.002237     0.121904     0.992539    
0.005407     -0.000523    0.999985     -0.016190    0.028120     0.999473    
0.011955     -0.023784    0.999646     -0.185529    -0.138559    0.972821    
-0.102784    0.077192     0.991704     -0.121348    0.016459     0.992474    
-0.031847    -0.135130    0.990316     -0.012305    -0.155135    0.987817    
-0.010423    0.011917     0.999875     -0.021177    0.005346     0.999761    
0.006260     -0.012306    0.999905     0.072031     -0.050327    0.996132    
-0.005627    -0.049234    0.998771     0.012937     -0.079180    0.996776    
-0.017411    -0.003394    0.999843     -0.007944    -0.017270    0.999819    
-0.003980    0.010096     0.999941     -0.008599    0.053713     0.998519    
-0.001604    0.000067     0.999999     0.010734     -0.010831    0.999884    
0.007723     0.015443     0.999851     0.003326     0.059839     0.998202    
-0.012605    -0.030576    0.999453     0.703055     0.056871     0.708858    
0.025713     0.004116     0.999661     -0.017310    -0.076981    0.996882    
0.046933     -0.028823    0.998482     0.000887     0.006521     0.999978    
