0.048579     -0.021234    0.998594     0.003838     -0.049085    0.998787    
-0.011636    0.014964     0.999820     0.038530     -0.011405    0.999192    
-0.059428    -0.019584    0.998040     -0.126253    -0.033975    0.991416    
0.073167     -0.003963    0.997312     0.236961     0.208935     0.948786    
0.006945     -0.011108    0.999914     0.001869     -0.015501    0.999878    
-0.018604    0.008068     0.999794     -0.071588    -0.004568    0.997424    
-0.073367    0.045275     0.996277     -0.112651    0.033344     0.993075    
-0.004911    -0.007714    0.999958     0.186784     -0.032356    0.981868    
0.015134     0.025361     0.999564     0.077109     0.067529     0.994733    
-0.047907    -0.065372    0.996710     -0.073687    -0.153347    0.985421    
0.009610     0.011484     0.999888     0.028833     0.197234     0.979932    
0.007554     -0.003933    0.999964     0.001696     -0.005519    0.999983    
-0.014047    0.041719     0.999031     -0.015266    0.027719     0.999499    
-0.008275    -0.024273    0.999671     0.007252     -0.027078    0.999607    
-0.008268    0.000137     0.999966     -0.016037    0.002008     0.999869    
0.071716     -0.026426    0.997075     -0.000313    0.073725     0.997279    
-0.124249    -0.075818    0.989350     -0.287448    -0.126213    0.949444    
-0.000358    0.052215     0.998636     0.126404     0.093274     0.987584    
0.143122     -0.018641    0.989529     0.306578     0.123718     0.943771    
0.014622     -0.025839    0.999559     -0.013089    -0.009817    0.999866    
-0.048476    0.063464     0.996806     -0.071279    0.130500     0.988883    
-0.040974    -0.070014    0.996704     -0.131117    -0.234462    0.963242    
0.042579     -0.038761    0.998341     0.161421     -0.030619    0.986410    
-0.019002    0.023645     0.999540     -0.096865    0.049195     0.994081    
0.017592     -0.031744    0.999341     0.047255     -0.045613    0.997841    
0.004980     0.027329     0.999614     0.001371     0.036441     0.999335    
-0.031708    0.021705     0.999261     -0.066989    -0.081866    0.994389    
-0.025422    -0.002108    0.999675     -0.009671    0.040036     0.999151    
-0.064950    -0.006356    0.997868     -0.102820    -0.053254    0.993273    
-0.048528    0.035714     0.998183     -0.042078    0.005877     0.999097    
0.006267     -0.054877    0.998473     -0.065255    0.093982     0.993433    
0.002516     -0.050583    0.998717     0.034432     -0.091757    0.995186    
0.009184     -0.018570    0.999785     0.019542     -0.002138    0.999807    
-0.030319    0.017059     0.999395     0.019405     0.024498     0.999511    
0.030006     0.014271     0.999448     0.348819     -0.154227    0.924413    
-0.008020    -0.022331    0.999718     -0.024482    -0.013678    0.999607    
-0.062383    -0.089310    0.994048     -0.056038    -0.131318    0.989755    
0.005115     0.019407     0.999799     0.002540     0.045900     0.998943    
-0.048220    0.056149     0.997257     -0.127142    -0.045883    0.990823    
-0.014636    0.070044     0.997436     -0.094039    0.004834     0.995557    
-0.005355    0.000830     0.999985     0.035149     -0.013972    0.999284    
0.055939     0.067840     0.996127     0.074033     0.089114     0.993266    
0.026246     -0.017578    0.999501     0.022045     -0.006566    0.999735    
-0.006338    -0.001944    0.999978     -0.107939    -0.084264    0.990580    
0.005298     -0.008584    0.999949     0.022247     -0.004648    0.999742    
0.022411     0.003987     0.999741     0.022242     -0.006325    0.999733    
0.092739     -0.013041    0.995605     -0.598614    0.764527     0.239082    
-0.053351    -0.028267    0.998176     -0.010335    -0.010584    0.999891    
0.044717     0.003588     0.998993     0.053164     -0.070369    0.996103    
0.018361     0.025221     0.999513     0.005566     0.072634     0.997343    
0.048677     -0.049219    0.997601     -0.372173    -0.097818    0.922995    
0.004632     0.002894     0.999985     0.024136     0.015993     0.999581    
0.015789     -0.042546    0.998970     -0.008254    -0.034338    0.999376    
0.056953     0.053585     0.996938     -0.008166    -0.034769    0.999362    
-0.030528    -0.061507    0.997640     0.380011     -0.599912    0.704057    
0.002953     0.004806     0.999984     -0.005619    0.006524     0.999963    
-0.078491    0.021628     0.996680     -0.207926    -0.040877    0.977290    
0.000326     0.001233     0.999999     -0.016877    0.023618     0.999579    
-0.029527    -0.024214    0.999271     0.087660     0.000072     0.996151    
0.041102     0.030340     0.998694     -0.169042    -0.137773    0.975932    
-0.054785    -0.162826    0.985133     -0.067107    -0.144733    0.987193    
0.010989     0.015666     0.999817     0.012711     -0.013737    0.999825    
0.019118     -0.045958    0.998760     -0.059063    0.191163     0.979780    
0.001690     -0.010080    0.999948     0.005458     -0.047331    0.998864    
-0.006572    0.029063     0.999556     0.204254     -0.065773    0.976706    
-0.001822    -0.037377    0.999300     0.023559     -0.107213    0.993957    
0.037129     -0.020154    0.999107     0.028240     -0.050983    0.998300    
0.016782     0.009563     0.999813     -0.012486    0.001981     0.999920    
0.005607     0.014510     0.999879     0.033095     0.016416     0.999317    
0.025030     0.017451     0.999534     -0.001973    -0.012499    0.999920    
-0.008626    0.024950     0.999651     0.028914     0.049528     0.998354    
-0.065593    0.016020     0.997718     -0.078898    0.038067     0.996156    
0.020160     -0.009919    0.999748     0.017454     0.032641     0.999315    
0.005902     -0.018351    0.999814     -0.235630    0.100136     0.966670    
0.069212     0.004848     0.997590     0.094321     0.043952     0.994571    
-0.112650    0.020197     0.993429     -0.378345    -0.078421    0.922337    
0.049726     -0.021862    0.998524     0.155354     -0.245317    0.956914    
-0.060720    -0.050035    0.996900     -0.084295    -0.062497    0.994479    
-0.067012    0.017819     0.997593     -0.097880    0.070668     0.992686    
-0.017610    -0.032294    0.999323     -0.097281    -0.039165    0.994486    
-0.011916    -0.019972    0.999730     0.004214     0.013580     0.999899    
0.004601     0.004935     0.999977     -0.009980    -0.020060    0.999749    
-0.001952    -0.006396    0.999978     0.009608     -0.042504    0.999050    
-0.014195    0.001261     0.999898     -0.010040    -0.056635    0.998344    
-0.045051    0.002836     0.998981     -0.041290    -0.107183    0.993382    
-0.004909    -0.013933    0.999891     -0.004269    0.033470     0.999431    
0.023886     -0.004699    0.999704     0.096096     0.018253     0.995205    
-0.007786    0.000218     0.999970     -0.002074    -0.026934    0.999635    
-0.024060    -0.004026    0.999703     -0.045191    0.018487     0.998807    
-0.007593    0.006322     0.999951     0.004744     -0.006828    0.999965    
-0.026604    -0.001789    0.999644     0.008815     0.042555     0.999055    
-0.026069    0.018467     0.999490     -0.036706    0.049734     0.998088    
-0.017558    0.007504     0.999818     0.017180     0.000701     0.999852    
-0.023259    -0.047050    0.998622     -0.044401    -0.007875    0.998983    
0.075859     0.006923     0.997095     0.031107     0.032372     0.998992    
0.020556     0.032148     0.999272     0.235866     -0.061585    0.969832    
-0.089515    -0.021573    0.995752     -0.365208    -0.067562    0.928471    
-0.012626    0.000501     0.999920     -0.021177    0.017087     0.999630    
-0.021178    0.029514     0.999340     -0.007065    -0.000390    0.999975    
-0.005546    -0.000550    0.999984     0.000263     -0.041742    0.999128    
-0.016209    -0.073708    0.997148     -0.024296    -0.089277    0.995711    
-0.046604    -0.091020    0.994758     -0.020027    0.215508     0.976297    
0.016310     -0.107813    0.994037     -0.028485    -0.048747    0.998405    
-0.035871    0.110050     0.993279     -0.041906    0.084203     0.995567    
0.032373     0.053427     0.998047     -0.043064    0.115870     0.992330    
0.025657     -0.044891    0.998662     -0.018666    -0.032377    0.999301    
0.010459     0.000278     0.999945     0.127808     0.185303     0.974335    
-0.012405    0.020567     0.999711     -0.100119    0.040952     0.994132    
-0.137382    -0.058191    0.988807     -0.140066    -0.123895    0.982360    
-0.009619    0.060258     0.998136     0.086896     0.334023     0.938551    
0.030211     0.010552     0.999488     0.028732     -0.018124    0.999423    
-0.072728    -0.048207    0.996186     -0.068339    -0.083572    0.994156    
-0.006978    -0.002522    0.999973     -0.001949    -0.008806    0.999959    
-0.025872    0.025292     0.999345     -0.008673    0.077267     0.996973    
0.039777     -0.074991    0.996390     0.134643     -0.254198    0.957734    
-0.030718    0.009571     0.999482     0.013778     -0.010970    0.999845    
0.004997     0.052495     0.998609     -0.153632    -0.035473    0.987491    
-0.048378    0.019268     0.998643     -0.063542    0.032468     0.997451    
-0.002894    -0.013888    0.999899     -0.011148    -0.023280    0.999667    
0.008152     -0.026298    0.999621     0.001795     -0.029667    0.999558    
-0.038226    -0.044642    0.998271     -0.043218    -0.030069    0.998613    
-0.003383    0.011013     0.999934     0.017193     0.032789     0.999314    
-0.021260    0.015353     0.999656     0.049513     -0.032468    0.998246    
-0.113713    -0.022782    0.993252     -0.018707    -0.043898    0.998861    
-0.033930    0.049001     0.998222     0.127464     0.035114     0.991221    
0.013500     -0.077675    0.996887     -0.025306    -0.087810    0.995816    
0.005599     0.042801     0.999068     -0.025315    0.008598     0.999643    
-0.003046    -0.007420    0.999968     0.153204     0.057481     0.986521    
-0.008878    -0.003286    0.999955     0.008610     -0.033302    0.999408    
-0.084783    0.006829     0.996376     -0.008493    0.011266     0.999900    
0.039444     -0.079899    0.996022     0.229654     -0.030117    0.972806    
0.032905     -0.009737    0.999411     0.006218     -0.059363    0.998217    
-0.040296    -0.041927    0.998308     -0.068117    -0.043764    0.996717    
-0.061900    0.112591     0.991711     -0.120561    0.213248     0.969531    
-0.003813    0.007469     0.999965     -0.001748    0.010298     0.999945    
-0.014457    -0.013473    0.999805     0.001873     0.102426     0.994739    
-0.006530    0.006453     0.999958     -0.003802    0.005829     0.999976    
0.020844     0.031901     0.999274     0.078893     -0.004450    0.996873    
-0.022317    0.017160     0.999604     -0.021572    0.021170     0.999543    
0.022701     -0.016933    0.999599     -0.507832    0.271618     0.817514    
0.043617     -0.056470    0.997451     0.064954     -0.053483    0.996454    
0.030137     0.022307     0.999297     0.000911     0.034541     0.999403    
-0.002486    0.020585     0.999785     -0.020753    0.017505     0.999631    
-0.007746    -0.008274    0.999936     -0.007664    -0.003512    0.999965    
0.007452     0.014072     0.999873     -0.001615    -0.017023    0.999854    
-0.051230    -0.031290    0.998197     -0.120240    -0.076292    0.989809    
0.003182     0.000296     0.999995     -0.006133    0.002458     0.999978    
-0.034444    0.022171     0.999161     -0.048229    0.014284     0.998734    
0.024262     0.068098     0.997384     -0.538859    0.234899     0.808983    
0.007116     -0.004693    0.999964     0.006780     -0.007561    0.999948    
0.012618     0.063984     0.997871     -0.158905    -0.279625    0.946868    
-0.044100    -0.023362    0.998754     0.082680     -0.430790    0.898657    
0.082959     -0.014661    0.996445     0.222345     -0.013920    0.974869    
-0.030147    -0.007761    0.999515     0.025274     0.007749     0.999651    
0.087453     0.044003     0.995196     0.082549     0.047137     0.995472    
-0.039462    0.048020     0.998066     -0.076401    0.079973     0.993865    
0.014729     -0.015264    0.999775     0.026425     0.010991     0.999590    
-0.020958    0.018295     0.999613     -0.213470    0.024050     0.976653    
0.027589     -0.029498    0.999184     0.039454     -0.005073    0.999209    
-0.001438    0.042658     0.999089     -0.015746    0.017465     0.999724    
-0.061143    0.000378     0.998129     -0.102513    0.055151     0.993202    
-0.015643    -0.005262    0.999864     -0.031570    0.053665     0.998060    
-0.028382    0.026262     0.999252     0.032584     -0.044923    0.998459    
-0.024585    -0.003967    0.999690     -0.075399    0.106008     0.991503    
-0.120577    0.053154     0.991280     0.062335     0.493503     0.867508    
-0.022149    0.015161     0.999640     -0.046079    0.019112     0.998755    
0.012439     -0.000043    0.999923     0.052139     -0.038148    0.997911    
0.063322     0.055768     0.996434     0.181512     0.312618     0.932375    
-0.024614    -0.042805    0.998780     -0.032463    -0.042375    0.998574    
-0.042642    -0.084318    0.995526     -0.047178    -0.113202    0.992451    
-0.020364    -0.006130    0.999774     -0.155526    -0.065005    0.985691    
-0.022924    0.041294     0.998884     0.037385     0.024192     0.999008    
0.014243     0.006201     0.999879     0.059963     -0.020515    0.997990    
-0.014354    -0.046854    0.998799     -0.063877    -0.053267    0.996535    
0.004761     0.040911     0.999151     0.021094     0.041795     0.998904    
-0.002816    -0.004806    0.999984     -0.012688    0.044857     0.998913    
0.030722     -0.025525    0.999202     0.039869     -0.016371    0.999071    
-0.035869    -0.039243    0.998586     -0.069764    -0.050324    0.996293    
-0.024569    0.045792     0.998649     -0.014123    0.053336     0.998477    
0.001610     0.064452     0.997920     0.009830     0.033015     0.999407    
-0.034843    0.018684     0.999218     -0.000499    0.014787     0.999891    
0.068263     -0.057129    0.996030     0.176344     -0.205993    0.962533    
0.007205     0.033093     0.999426     0.029779     0.028756     0.999143    
0.008061     0.020991     0.999747     0.005082     0.024438     0.999688    
-0.060052    0.023745     0.997913     -0.192371    -0.137446    0.971649    
0.010308     0.039907     0.999150     0.001047     0.044509     0.999008    
0.031589     0.080544     0.996250     0.050441     0.045909     0.997671    
-0.007268    -0.035755    0.999334     0.141649     0.124910     0.982005    
0.030976     0.015020     0.999407     -0.038834    -0.030090    0.998793    
0.043166     -0.050632    0.997784     0.044065     -0.049297    0.997812    
-0.001308    -0.012239    0.999924     -0.030557    -0.019213    0.999348    
-0.018735    -0.012260    0.999749     0.017528     -0.003019    0.999842    
-0.003430    0.003184     0.999989     -0.000741    0.014512     0.999894    
0.125660     -0.009280    0.992030     0.097316     0.086404     0.991496    
-0.030936    0.023276     0.999250     0.028442     0.047597     0.998462    
0.032407     0.018482     0.999304     0.033064     0.116104     0.992687    
-0.011887    -0.014880    0.999819     -0.015313    -0.017272    0.999734    
-0.161657    0.030782     0.986367     -0.320039    -0.095845    0.942544    
0.006836     -0.020588    0.999765     -0.397349    0.178886     0.900063    
0.007869     -0.009436    0.999925     0.053961     0.009683     0.998496    
-0.030093    0.041787     0.998673     -0.022319    0.002251     0.999748    
0.020732     -0.030232    0.999328     0.005443     -0.039470    0.999206    
0.030749     0.001788     0.999525     0.007024     0.023183     0.999707    
-0.018079    0.078861     0.996722     -0.028518    0.100616     0.994517    
0.068720     0.040375     0.996819     0.087615     0.014442     0.996050    
-0.053240    -0.033109    0.998033     -0.020992    -0.011430    0.999714    
-0.037882    -0.030748    0.998809     0.013934     -0.153373    0.988070    
0.004640     -0.010409    0.999935     -0.064594    0.040515     0.997089    
0.108770     -0.083041    0.990592     0.132393     0.110511     0.985017    
0.008524     -0.016072    0.999835     -0.289105    -0.061465    0.955322    
0.019572     -0.001551    0.999807     -0.047131    0.036137     0.998235    
0.072550     -0.044902    0.996353     0.369022     -0.061747    0.927367    
0.021833     0.179651     0.983488     0.053108     0.158000     0.986010    
0.010020     0.024177     0.999657     0.037512     0.039246     0.998525    
-0.014920    0.002056     0.999887     -0.026857    0.004223     0.999630    
-0.004878    -0.051499    0.998661     -0.363409    -0.121138    0.923721    
0.046677     -0.073147    0.996228     0.114119     -0.124944    0.985579    
-0.026269    0.000252     0.999655     0.107883     0.097172     0.989403    
0.091698     -0.070064    0.993319     0.104238     -0.064478    0.992460    
0.059257     -0.016145    0.998112     0.031103     -0.006560    0.999495    
-0.013241    0.016712     0.999773     -0.065093    -0.041230    0.997027    
-0.018444    -0.047099    0.998720     0.099998     -0.160346    0.981982    
0.011030     0.018164     0.999774     0.162363     -0.291723    0.942622    
-0.059229    -0.018372    0.998075     -0.163509    -0.009551    0.986496    
-0.041058    -0.027594    0.998776     -0.101388    -0.138373    0.985177    
-0.031087    -0.020532    0.999306     0.141904     -0.089481    0.985828    
-0.018459    0.003421     0.999824     -0.036687    -0.038138    0.998599    
-0.011310    -0.019374    0.999748     0.034153     -0.004572    0.999406    
-0.034878    -0.059765    0.997603     -0.018926    -0.058999    0.998079    
-0.046538    0.049227     0.997703     0.216397     0.162384     0.962706    
0.004211     0.171650     0.985149     -0.283888    0.400146     0.871373    
0.001535     -0.081879    0.996641     -0.012050    0.110885     0.993760    
-0.015482    0.006250     0.999861     -0.037826    -0.016381    0.999150    
0.032081     -0.016640    0.999347     0.219336     -0.206662    0.953511    
-0.078307    0.068615     0.994565     0.014860     0.074205     0.997132    
0.015558     -0.010690    0.999822     -0.020175    -0.057720    0.998129    
0.049142     0.007477     0.998764     0.050236     0.004108     0.998729    
0.000481     -0.001134    0.999999     0.062554     0.042177     0.997150    
0.033260     -0.011513    0.999380     0.151758     -0.028487    0.988007    
0.006219     -0.060722    0.998135     0.433663     -0.026495    0.900685    
0.081667     -0.006250    0.996640     0.208580     0.210190     0.955152    
0.057185     -0.024311    0.998068     0.026805     -0.063912    0.997595    
-0.011611    -0.007092    0.999907     -0.017701    -0.017659    0.999687    
-0.026692    -0.000850    0.999643     -0.012822    0.007298     0.999891    
-0.003603    0.020848     0.999776     -0.009741    0.020494     0.999742    
0.001142     0.007843     0.999969     0.005040     0.027020     0.999622    
-0.015463    -0.019447    0.999691     -0.084848    -0.048508    0.995212    
0.080288     0.043719     0.995813     0.272551     0.134999     0.952623    
-0.063496    -0.089546    0.993957     -0.004431    -0.167087    0.985932    
-0.075832    0.006029     0.997102     -0.030578    0.125634     0.991605    
0.026930     0.011084     0.999576     -0.157723    -0.008697    0.987445    
-0.013697    0.000321     0.999906     -0.020404    0.024053     0.999502    
0.010375     0.002049     0.999944     0.019198     0.003133     0.999811    
-0.051623    -0.014485    0.998562     0.130930     -0.059812    0.989586    
0.077230     -0.041522    0.996148     0.119309     -0.055281    0.991317    
0.012623     -0.001844    0.999919     0.004174     0.014947     0.999880    
0.047659     0.014598     0.998757     0.043055     0.026441     0.998723    
-0.056409    0.042786     0.997491     0.017740     -0.042248    0.998950    
0.028744     0.086739     0.995816     0.156837     0.250576     0.955308    
-0.019579    -0.033753    0.999238     -0.007286    -0.181113    0.983435    
-0.037496    -0.003407    0.999291     -0.029103    -0.015765    0.999452    
0.027274     0.052919     0.998226     0.130075     -0.235358    0.963165    
-0.011758    -0.034463    0.999337     -0.060454    0.001936     0.998169    
-0.010185    -0.017895    0.999788     0.017606     -0.024835    0.999536    
-0.006538    0.006922     0.999955     -0.007284    0.010336     0.999920    
0.035475     0.015878     0.999244     -0.034077    0.029117     0.998995    
-0.001940    -0.054087    0.998534     -0.062017    -0.165065    0.984331    
-0.011302    -0.010323    0.999883     -0.032469    -0.008920    0.999433    
0.007919     -0.019969    0.999769     -0.044958    -0.005774    0.998972    
-0.043395    0.087499     0.995219     -0.051370    0.084759     0.995076    
0.010544     0.094111     0.995506     0.001372     0.096602     0.995322    
0.003440     -0.004156    0.999985     0.019719     0.041470     0.998945    
0.004475     -0.015420    0.999871     0.011779     -0.005979    0.999913    
-0.014389    -0.007728    0.999867     -0.006112    -0.011686    0.999913    
-0.008071    -0.003333    0.999962     -0.018180    -0.058583    0.998117    
-0.039253    0.008265     0.999195     -0.004368    0.010634     0.999934    
-0.003595    0.000411     0.999994     -0.001115    0.008849     0.999960    
0.049733     -0.013096    0.998677     -0.031089    0.026516     0.999165    
0.129521     0.003315     0.991571     0.083181     -0.032046    0.996019    
-0.033054    0.015851     0.999328     -0.184565    0.006849     0.982797    
0.019333     -0.007234    0.999787     0.005136     -0.010709    0.999929    
-0.007688    0.021298     0.999744     -0.075482    -0.021080    0.996924    
0.020545     0.017764     0.999631     -0.029948    0.139600     0.989755    
-0.061038    0.034262     0.997547     -0.210455    0.138822     0.967697    
-0.029554    0.038459     0.998823     0.050933     0.039357     0.997926    
0.005512     -0.005581    0.999969     0.018805     -0.014668    0.999716    
-0.024240    -0.068361    0.997366     -0.228217    -0.182669    0.956321    
-0.005056    -0.033147    0.999438     -0.041114    -0.087197    0.995342    
0.070527     0.021883     0.997270     0.092319     0.039619     0.994941    
0.008506     0.017219     0.999815     0.016714     -0.012717    0.999780    
-0.004258    -0.022044    0.999748     -0.010268    0.000673     0.999947    
0.008118     -0.044560    0.998974     -0.159999    0.034889     0.986500    
0.015519     -0.006920    0.999856     -0.103219    -0.064467    0.992567    
-0.005772    0.008557     0.999947     0.010430     0.029995     0.999496    
-0.020228    0.013392     0.999706     0.013079     -0.006703    0.999892    
0.000666     -0.034504    0.999404     0.009880     -0.034409    0.999359    
-0.009122    -0.014198    0.999858     -0.005277    0.015074     0.999872    
-0.014545    -0.038179    0.999165     0.204576     -0.087479    0.974934    
-0.137837    -0.038642    0.989701     0.161424     0.021382     0.986653    
-0.124438    -0.040888    0.991385     -0.054321    -0.147679    0.987542    
0.054556     -0.034596    0.997911     -0.002681    -0.080172    0.996777    
-0.013746    -0.013563    0.999814     -0.009278    -0.022900    0.999695    
0.105654     -0.047876    0.993250     0.048420     -0.004052    0.998819    
-0.057329    -0.107446    0.992557     -0.300423    0.208483     0.930742    
-0.000619    -0.071370    0.997450     -0.027002    -0.110805    0.993475    
0.001734     -0.007604    0.999970     -0.025865    -0.004823    0.999654    
-0.005633    0.004225     0.999975     -0.055325    -0.076963    0.995498    
0.002125     -0.003382    0.999992     0.006309     -0.004701    0.999969    
-0.035356    -0.012898    0.999292     -0.030241    -0.006146    0.999524    
0.012353     0.004533     0.999913     0.036485     0.006919     0.999310    
-0.032412    -0.018484    0.999304     -0.015306    -0.022798    0.999623    
-0.082482    0.038633     0.995844     -0.124925    0.161291     0.978968    
-0.018698    0.015884     0.999699     -0.017650    0.170420     0.985213    
-0.008096    0.000918     0.999967     -0.038258    0.004062     0.999260    
0.000127     0.008845     0.999961     0.003511     0.018597     0.999821    
0.025330     0.043497     0.998733     0.026264     0.036857     0.998975    
-0.014196    -0.017660    0.999743     -0.393323    0.034580     0.918750    
0.093719     -0.006102    0.995580     -0.122220    -0.502788    0.855726    
-0.003657    0.010323     0.999940     -0.038525    0.117857     0.992283    
-0.015402    -0.022088    0.999637     -0.017462    -0.040537    0.999025    
-0.029236    0.036150     0.998919     -0.050805    0.029096     0.998285    
-0.008906    -0.002277    0.999958     -0.006004    -0.007216    0.999956    
-0.049204    -0.039492    0.998008     0.087423     -0.129258    0.987750    
-0.027426    -0.045687    0.998579     -0.023413    -0.053530    0.998292    
-0.043362    -0.008558    0.999023     -0.033905    0.049985     0.998174    
-0.001130    -0.007175    0.999974     -0.055933    -0.118496    0.991378    
-0.017121    -0.010021    0.999803     0.057997     -0.055935    0.996749    
-0.036174    -0.074546    0.996561     -0.295036    0.272957     0.915668    
-0.010132    0.008005     0.999917     -0.013385    0.005764     0.999894    
-0.052282    0.008993     0.998592     -0.183941    0.031509     0.982432    
0.026175     -0.000681    0.999657     0.068841     0.001941     0.997626    
0.007707     -0.052986    0.998566     -0.008723    -0.082824    0.996526    
0.010065     0.034917     0.999340     0.001653     0.094562     0.995518    
0.010536     -0.012464    0.999867     -0.041170    -0.029062    0.998729    
-0.014680    0.020061     0.999691     -0.027238    0.129105     0.991257    
0.016670     0.022691     0.999604     0.006326     -0.002514    0.999977    
-0.032069    -0.075074    0.996662     -0.023872    -0.138615    0.990059    
0.042094     -0.006439    0.999093     0.070332     0.218032     0.973404    
0.012361     0.013969     0.999826     0.048829     0.022465     0.998554    
-0.060806    0.039488     0.997368     -0.220215    -0.329038    0.918280    
-0.021189    -0.004037    0.999767     -0.043315    -0.047671    0.997924    
0.007067     -0.006669    0.999953     0.009542     -0.011901    0.999884    
-0.002999    0.034861     0.999388     0.140152     -0.041449    0.989262    
-0.036440    -0.085782    0.995647     -0.198401    -0.308154    0.930418    
-0.000431    -0.002238    0.999997     0.015301     0.022439     0.999631    
0.001519     -0.021838    0.999760     -0.000757    0.016820     0.999858    
0.022609     0.013732     0.999650     0.028870     0.062181     0.997647    
0.006866     0.006910     0.999952     0.037935     -0.023553    0.999003    
0.010620     -0.017931    0.999783     0.026626     -0.024618    0.999342    
-0.079009    -0.035383    0.996246     -0.077146    -0.041836    0.996142    
0.003534     -0.036482    0.999328     0.000226     -0.021593    0.999767    
-0.049211    -0.080765    0.995518     -0.077509    -0.014860    0.996881    
-0.000069    0.023840     0.999716     0.054231     -0.005196    0.998515    
0.003771     -0.024633    0.999689     0.020637     0.626181     0.779404    
0.005844     -0.004919    0.999971     -0.036575    0.004798     0.999319    
0.116871     -0.005091    0.993134     0.164920     -0.065927    0.984101    
-0.002545    -0.023409    0.999723     0.164156     -0.010921    0.986374    
0.028824     0.065234     0.997454     -0.011360    0.012697     0.999855    
0.007727     -0.010307    0.999917     0.011167     0.002396     0.999935    
0.003884     0.003813     0.999985     0.008453     -0.029058    0.999542    
-0.079312    0.031058     0.996366     -0.109225    0.120560     0.986679    
0.005334     0.003369     0.999980     0.043758     0.075309     0.996200    
0.027379     0.007836     0.999594     0.035768     -0.032961    0.998816    
-0.045295    0.094176     0.994525     0.094480     0.058962     0.993779    
0.010539     0.014551     0.999838     0.027181     0.006544     0.999609    
0.012562     0.012649     0.999841     -0.221914    0.089064     0.970990    
-0.059124    0.058205     0.996552     0.025010     -0.017855    0.999528    
0.017835     -0.001847    0.999839     0.118068     -0.042528    0.992094    
0.030497     -0.011447    0.999469     0.109950     0.053069     0.992519    
-0.025608    0.048134     0.998513     -0.052328    0.056246     0.997045    
-0.056472    0.034969     0.997792     -0.326811    0.048917     0.943823    
-0.028191    0.023207     0.999333     -0.215362    -0.006391    0.976513    
0.035844     -0.011149    0.999295     0.038113     -0.141117    0.989259    
0.022149     0.008669     0.999717     0.022552     -0.012774    0.999664    
0.141223     0.040319     0.989156     0.268167     -0.097031    0.958473    
0.003427     -0.011702    0.999926     0.073403     -0.020456    0.997093    
-0.017642    0.006222     0.999825     0.195447     -0.012607    0.980633    
-0.010674    -0.030544    0.999476     -0.025777    0.002566     0.999664    
0.055181     -0.052454    0.997098     -0.033492    -0.059058    0.997693    
0.026584     -0.004326    0.999637     0.000459     0.004629     0.999989    
0.012612     -0.036643    0.999249     0.119899     -0.014097    0.992686    
-0.006908    -0.047586    0.998843     -0.055755    0.004976     0.998432    
-0.018106    0.001152     0.999835     0.042354     -0.055755    0.997546    
0.037675     0.018549     0.999118     0.033264     0.068257     0.997113    
-0.017564    -0.055853    0.998285     -0.038220    -0.095504    0.994695    
0.019506     0.034992     0.999197     0.050566     -0.008164    0.998687    
0.042393     -0.025616    0.998773     0.022218     -0.042327    0.998857    
-0.034083    0.003493     0.999413     -0.071997    -0.049829    0.996159    
0.001698     0.022024     0.999756     0.106558     0.616508     0.780104    
-0.056882    -0.032656    0.997847     0.126129     0.359280     0.924667    
-0.024226    -0.038110    0.998980     -0.091363    -0.016788    0.995676    
0.004219     -0.002384    0.999988     0.041405     0.102607     0.993860    
-0.001041    -0.005358    0.999985     -0.012781    0.026883     0.999557    
0.006060     -0.004766    0.999970     0.038818     0.035296     0.998623    
-0.026859    0.060931     0.997781     -0.106870    0.015812     0.994147    
-0.008222    0.005227     0.999953     -0.018771    0.010304     0.999771    
0.003515     -0.025413    0.999671     -0.001219    -0.002373    0.999996    
0.105918     -0.161700    0.981139     0.158777     -0.248411    0.955553    
-0.054279    0.068552     0.996170     -0.118265    0.082276     0.989568    
-0.075219    0.044135     0.996190     0.037808     0.107896     0.993443    
-0.015201    -0.009530    0.999839     0.006000     0.004033     0.999974    
-0.086608    -0.096323    0.991575     -0.102033    -0.002423    0.994778    
0.033109     0.090603     0.995337     -0.245169    -0.412156    0.877507    
0.065276     -0.080482    0.994616     -0.227830    -0.086737    0.969830    
0.104302     0.029118     0.994119     0.203072     0.337635     0.919110    
-0.022880    -0.003190    0.999733     0.004521     -0.033759    0.999420    
-0.006453    -0.078715    0.996876     0.164628     -0.062530    0.984372    
-0.042394    -0.053284    0.997679     -0.203350    0.057319     0.977427    
-0.019735    -0.004718    0.999794     0.020161     0.011125     0.999735    
0.004169     -0.006629    0.999969     0.016615     0.015349     0.999744    
0.002638     0.006506     0.999975     -0.007051    0.010568     0.999919    
-0.066260    -0.075779    0.994921     -0.175750    0.012097     0.984361    
-0.027944    0.001409     0.999608     -0.032204    -0.038079    0.998756    
0.024219     0.000714     0.999706     0.030419     0.039154     0.998770    
-0.011470    -0.014555    0.999828     0.030153     -0.157737    0.987021    
-0.056354    0.021837     0.998172     -0.027197    -0.047273    0.998512    
-0.018074    -0.008414    0.999801     0.046597     -0.031130    0.998429    
0.010208     0.034301     0.999359     -0.005371    0.027412     0.999610    
0.000842     0.034131     0.999417     0.014768     0.068118     0.997568    
0.001115     -0.002842    0.999995     0.007942     -0.014579    0.999862    
0.014874     0.006281     0.999870     -0.032541    0.004904     0.999458    
-0.001326    0.060243     0.998183     0.019033     0.059918     0.998022    
0.003628     0.005238     0.999980     0.002844     0.003192     0.999991    
0.013726     0.007172     0.999880     0.007534     0.007090     0.999946    
-0.000051    0.021255     0.999774     -0.051321    0.065144     0.996555    
-0.086880    -0.023974    0.995930     -0.280811    -0.930088    -0.236814   
-0.022816    0.011977     0.999668     -0.002990    -0.003728    0.999989    
0.003301     -0.016440    0.999859     -0.060497    -0.048640    0.996983    
-0.016833    0.032970     0.999315     0.029817     0.202373     0.978854    
0.035000     -0.024996    0.999075     -0.144135    0.102830     0.984201    
-0.014584    0.008418     0.999858     0.010269     -0.010470    0.999892    
-0.013094    0.023020     0.999649     -0.001072    0.011492     0.999933    
0.007835     0.033764     0.999399     -0.004359    0.095421     0.995427    
0.009101     -0.047676    0.998821     0.080622     0.463314     0.882519    
0.014622     -0.115338    0.993219     -0.082099    -0.058135    0.994927    
0.079764     0.026837     0.996452     0.087534     -0.019608    0.995968    
0.007020     0.045889     0.998922     -0.045562    0.551353     0.833027    
-0.004355    0.057054     0.998362     -0.049080    0.091334     0.994610    
0.005407     0.001110     0.999985     0.011750     0.051127     0.998623    
0.052670     -0.059174    0.996857     0.167480     -0.163996    0.972140    
-0.010271    0.017382     0.999796     0.119357     -0.093087    0.988478    
-0.013664    -0.087296    0.996089     -0.118433    -0.159631    0.980047    
0.029697     0.016681     0.999420     0.024197     0.027615     0.999326    
0.012629     -0.010971    0.999860     -0.014158    0.009013     0.999859    
-0.006961    -0.050360    0.998707     -0.082888    0.066439     0.994342    
-0.029315    -0.004756    0.999559     -0.051887    -0.003996    0.998645    
0.054319     0.016917     0.998380     0.310772     -0.118480    0.943071    
0.019772     -0.051512    0.998477     0.033160     -0.043307    0.998511    
-0.007036    0.005930     0.999958     -0.017564    0.004883     0.999834    
0.008961     0.020011     0.999760     0.097900     0.127121     0.987044    
-0.015363    0.022034     0.999639     -0.015514    0.010768     0.999822    
-0.034523    0.036192     0.998748     -0.049901    0.048376     0.997582    
-0.006885    -0.009003    0.999936     0.007586     0.008307     0.999937    
0.034231     0.028288     0.999014     -0.203375    -0.058669    0.977342    
0.077706     -0.051004    0.995671     0.103273     0.020182     0.994448    
-0.008482    0.013603     0.999871     -0.015052    0.027856     0.999499    
0.019046     -0.014671    0.999711     0.102521     -0.083129    0.991251    
-0.041287    0.059271     0.997388     -0.099164    -0.026888    0.994708    
0.004782     0.004334     0.999979     0.008149     0.001317     0.999966    
0.001774     -0.011669    0.999930     0.008772     -0.038352    0.999226    
-0.071091    0.111382     0.991232     -0.026979    0.083930     0.996106    
-0.179860    -0.042535    0.982772     -0.392673    0.257893     0.882779    
0.007273     0.020427     0.999765     -0.076432    0.074347     0.994299    
0.044832     0.019965     0.998795     0.115040     0.065907     0.991172    
-0.008314    -0.007044    0.999941     0.017218     0.028216     0.999454    
-0.047696    0.036213     0.998205     -0.110682    0.155808     0.981567    
0.073672     0.027725     0.996897     -0.184418    -0.208567    0.960463    
0.027724     -0.043377    0.998674     0.144615     -0.206596    0.967680    
0.020037     -0.010663    0.999742     -0.014662    -0.067258    0.997628    
0.028234     -0.057522    0.997945     -0.043599    0.076983     0.996079    
0.045111     -0.014448    0.998878     0.051520     0.252180     0.966308    
0.044367     -0.007436    0.998988     0.094482     -0.117653    0.988550    
0.014147     0.000953     0.999899     -0.027343    0.053247     0.998207    
0.001515     -0.009926    0.999950     0.007848     -0.007007    0.999945    
0.060253     0.032019     0.997669     0.044007     0.052551     0.997648    
0.043359     -0.023272    0.998788     0.072332     -0.009797    0.997332    
-0.033861    0.047096     0.998316     0.398840     0.614461     0.680709    
-0.029942    0.003410     0.999546     -0.022099    -0.042083    0.998870    
0.033314     -0.016692    0.999305     0.075474     -0.050174    0.995885    
-0.007777    0.010194     0.999918     -0.007296    -0.009660    0.999927    
0.021962     -0.099492    0.994796     0.064994     -0.196735    0.978300    
0.002638     0.026605     0.999643     -0.013792    -0.221541    0.975053    
-0.001718    -0.000053    0.999998     0.007152     0.017382     0.999823    
-0.067484    -0.023967    0.997432     -0.102383    -0.096058    0.990096    
0.041750     -0.053921    0.997672     0.036790     -0.103407    0.993958    
0.005921     0.004355     0.999973     0.004293     0.007436     0.999963    
-0.064909    -0.015165    0.997776     -0.162009    -0.227460    0.960216    
0.003366     0.017058     0.999849     0.016230     0.060478     0.998038    
0.010400     -0.002532    0.999943     0.006334     -0.014908    0.999869    
0.015500     0.030831     0.999404     0.077497     0.008468     0.996957    
0.056303     -0.034438    0.997820     0.062807     -0.014823    0.997916    
-0.110338    -0.088108    0.989981     -0.014632    -0.071435    0.997338    
-0.005095    0.025017     0.999674     0.012811     -0.012890    0.999835    
-0.002349    0.005739     0.999981     0.010456     0.014838     0.999835    
-0.007321    0.006126     0.999955     -0.019611    0.001612     0.999806    
-0.011037    -0.031303    0.999449     -0.058810    -0.147227    0.987353    
-0.023442    -0.048860    0.998530     -0.016809    -0.031912    0.999349    
-0.064808    0.083684     0.994383     -0.135518    0.187085     0.972951    
-0.030337    0.003697     0.999533     -0.106592    -0.036860    0.993619    
0.031482     0.007233     0.999478     -0.035952    0.069285     0.996949    
0.075598     0.000390     0.997138     0.131796     0.089175     0.987258    
0.008854     0.004491     0.999951     -0.001337    0.015106     0.999885    
0.001868     0.016373     0.999864     0.012498     -0.008893    0.999882    
0.010725     0.012983     0.999858     0.004279     0.003462     0.999985    
0.001806     0.017969     0.999837     0.025436     0.037972     0.998955    
0.012888     -0.009964    0.999867     -0.018066    0.004853     0.999825    
0.025910     -0.023657    0.999384     -0.182747    0.056232     0.981551    
-0.053210    -0.015949    0.998456     -0.182503    -0.133273    0.974131    
-0.016428    -0.006588    0.999843     -0.019713    -0.012517    0.999727    
-0.055319    -0.000106    0.998469     -0.111227    0.035818     0.993149    
0.002672     0.011066     0.999935     0.108907     -0.070963    0.991516    
-0.005256    0.005052     0.999973     0.021745     0.003108     0.999759    
-0.034228    -0.029498    0.998979     -0.189703    -0.013699    0.981746    
0.064162     -0.021311    0.997712     0.030881     0.052734     0.998131    
0.031621     0.019472     0.999310     0.039772     -0.000060    0.999209    
0.045376     -0.036628    0.998298     0.218493     -0.021300    0.975606    
-0.056775    -0.118567    0.991322     0.019934     -0.131247    0.991149    
-0.012105    0.021598     0.999693     -0.014388    0.087088     0.996097    
0.012796     -0.009834    0.999870     0.010712     -0.012649    0.999863    
-0.020714    -0.013282    0.999697     -0.015534    -0.035048    0.999265    
0.013620     0.017193     0.999759     -0.024632    0.025047     0.999383    
0.011664     -0.113650    0.993452     -0.014773    -0.054977    0.998378    
-0.003639    0.009247     0.999951     -0.003213    0.013514     0.999903    
0.010094     -0.001364    0.999948     -0.014722    -0.047016    0.998786    
-0.002345    0.023298     0.999726     0.000698     0.071978     0.997406    
-0.147083    -0.086944    0.985296     -0.065427    -0.237236    0.969246    
-0.002776    -0.009309    0.999953     -0.039237    -0.009801    0.999182    
0.064819     -0.009111    0.997855     0.089102     -0.031318    0.995530    
0.010371     0.057742     0.998278     0.094641     0.035774     0.994868    
-0.020556    0.017282     0.999639     -0.005183    0.008972     0.999946    
0.029363     0.020764     0.999353     0.009699     0.028927     0.999534    
0.002387     -0.004286    0.999988     0.009263     -0.008503    0.999921    
0.007613     -0.021844    0.999732     -0.213170    0.061331     0.975088    
0.036164     0.156476     0.987019     0.338026     0.421737     0.841354    
0.079055     -0.038339    0.996133     0.337450     0.009209     0.941298    
-0.004558    -0.066188    0.997797     -0.077043    0.069009     0.994637    
-0.025092    -0.050283    0.998420     -0.561626    -0.269438    0.782291    
0.016645     -0.003823    0.999854     0.019287     0.004829     0.999802    
0.086967     0.051294     0.994890     0.071452     0.069219     0.995039    
-0.032468    0.047813     0.998328     -0.026984    0.059572     0.997859    
0.007190     -0.009877    0.999925     0.133785     -0.030601    0.990538    
-0.019560    -0.007772    0.999778     -0.005354    -0.009065    0.999945    
-0.062074    -0.012992    0.997987     -0.047237    -0.109305    0.992885    
0.004489     0.006225     0.999971     0.015333     0.031635     0.999382    
0.034210     0.005103     0.999402     0.090268     -0.002164    0.995915    
-0.017963    0.022720     0.999580     0.014405     -0.026655    0.999541    
-0.031043    -0.006547    0.999497     -0.059572    -0.004775    0.998213    
0.030513     0.011414     0.999469     0.048424     0.007999     0.998795    
-0.015978    0.000195     0.999872     -0.009481    0.003844     0.999948    
0.002981     -0.134859    0.990860     0.066223     -0.197373    0.978089    
-0.004906    -0.047889    0.998841     -0.045053    -0.163381    0.985534    
0.023890     -0.004268    0.999706     -0.006431    -0.058837    0.998247    
-0.009361    -0.003029    0.999952     -0.016908    0.007913     0.999826    
-0.052125    -0.047659    0.997503     -0.694000    0.688956     0.209055    
-0.019280    0.060163     0.998002     -0.038510    0.117016     0.992383    
-0.000845    0.036632     0.999328     -0.021797    -0.087669    0.995911    
-0.044561    0.006210     0.998987     0.155632     0.105147     0.982203    
0.001135     0.008349     0.999964     -0.001834    0.014406     0.999895    
0.014674     0.047736     0.998752     0.121449     -0.011520    0.992531    
0.019426     0.034556     0.999214     0.002812     0.022560     0.999742    
-0.012054    0.014944     0.999816     -0.034221    -0.008651    0.999377    
0.022877     -0.084544    0.996157     0.018845     -0.130256    0.991301    
0.031814     0.046269     0.998422     0.022005     0.807009     0.590129    
-0.004313    0.015040     0.999878     0.106133     -0.021532    0.994119    
-0.117662    0.046533     0.991963     0.041987     -0.090562    0.995005    
0.025610     -0.000406    0.999672     0.057331     -0.012202    0.998281    
-0.023499    0.076823     0.996768     -0.057184    0.051348     0.997042    
-0.042467    -0.045321    0.998069     -0.004218    -0.104444    0.994522    
0.002068     0.001707     0.999996     0.003025     0.001099     0.999995    
0.020338     -0.044325    0.998810     -0.000998    -0.019848    0.999803    
0.005927     -0.006842    0.999959     0.085825     -0.011945    0.996239    
0.034497     0.020419     0.999196     0.033560     -0.051824    0.998092    
-0.054201    -0.069928    0.996078     -0.203151    -0.248401    0.947115    
-0.069463    -0.055823    0.996021     0.794333     0.377566     0.475899    
-0.005577    0.012252     0.999909     -0.013494    0.022415     0.999658    
-0.068515    -0.056156    0.996068     0.052460     -0.061823    0.996708    
0.003979     0.005096     0.999979     0.010485     0.014435     0.999841    
0.055843     0.002925     0.998435     0.051403     0.010852     0.998619    
-0.011656    -0.052677    0.998544     -0.120669    -0.164329    0.978997    
-0.010198    0.012261     0.999873     -0.030585    0.009861     0.999483    
0.002167     0.013760     0.999903     0.010586     0.039722     0.999155    
-0.023392    0.001209     0.999726     -0.020383    0.000112     0.999792    
-0.005337    -0.037081    0.999298     -0.031590    -0.100996    0.994385    
0.003978     -0.030280    0.999534     -0.006191    -0.016430    0.999846    
-0.046860    -0.029853    0.998455     -0.047579    -0.079917    0.995665    
0.020958     -0.011565    0.999713     -0.022316    0.018718     0.999576    
-0.068141    -0.016120    0.997545     -0.085046    -0.027171    0.996006    
0.037341     -0.026952    0.998939     -0.114792    0.173511     0.978119    
0.135892     -0.032869    0.990178     0.169883     -0.011769    0.985394    
-0.001870    0.004570     0.999988     -0.000518    0.003831     0.999992    
0.047142     -0.040124    0.998082     0.140293     -0.005424    0.990095    
-0.014141    0.018864     0.999722     -0.025754    0.081207     0.996365    
-0.041408    -0.035370    0.998516     -0.087141    -0.136800    0.986758    
0.012139     -0.031438    0.999432     -0.654865    -0.044344    0.754444    
0.001118     0.002027     0.999997     0.030880     0.043683     0.998568    
0.021944     -0.030230    0.999302     -0.029135    0.054595     0.998083    
0.036183     -0.010161    0.999294     0.046142     0.054783     0.997432    
-0.011965    -0.007001    0.999904     -0.108364    -0.153480    0.982192    
-0.008429    0.022242     0.999717     0.043167     0.050861     0.997772    
0.028739     -0.004781    0.999576     -0.022660    0.057820     0.998070    
0.002173     0.006496     0.999976     0.015619     0.025379     0.999556    
-0.025136    0.010121     0.999633     -0.049437    0.021264     0.998551    
-0.051734    -0.125316    0.990767     0.064993     -0.116412    0.991072    
0.040317     0.009630     0.999141     0.106768     0.000170     0.994284    
0.102451     0.003918     0.994730     0.135538     0.020613     0.990558    
0.049280     0.109539     0.992760     0.036074     0.025622     0.999021    
-0.027230    -0.006832    0.999606     0.164377     0.109605     0.980289    
0.007972     -0.000983    0.999968     -0.033779    -0.066144    0.997238    
-0.001066    0.036253     0.999342     -0.279046    0.085575     0.956457    
0.014524     0.020724     0.999680     0.003661     0.043711     0.999038    
0.027243     -0.003387    0.999623     -0.049863    0.105266     0.993193    
-0.084612    0.084692     0.992808     -0.065512    -0.418785    0.905719    
0.028250     -0.003639    0.999594     0.057864     0.132455     0.989498    
0.019743     0.018929     0.999626     0.013212     0.013822     0.999817    
0.030872     -0.038448    0.998784     -0.033637    -0.129270    0.991039    
