0.025334     0.024680     0.999374     0.042340     0.008555     0.999067    
-0.026859    -0.024891    0.999329     0.000780     -0.054753    0.998500    
0.117422     0.070177     0.990599     0.110496     -0.051490    0.992542    
-0.000374    -0.065916    0.997825     0.026195     -0.227609    0.973400    
-0.019255    0.000441     0.999815     -0.008370    -0.007001    0.999941    
0.027204     0.034516     0.999034     0.018289     0.037561     0.999127    
-0.029924    -0.149350    0.988331     0.156936     0.134271     0.978439    
0.009302     -0.001022    0.999956     0.004082     0.018707     0.999817    
-0.035112    0.012405     0.999306     -0.008784    0.028978     0.999541    
-0.001503    -0.006543    0.999977     -0.024966    -0.008529    0.999652    
0.007629     0.030177     0.999515     0.038142     0.040189     0.998464    
-0.011654    -0.006459    0.999911     -0.039815    -0.034866    0.998599    
0.033877     -0.104202    0.993979     0.273745     0.069818     0.959265    
0.006776     -0.004101    0.999969     0.003864     0.001693     0.999991    
0.086382     0.071523     0.993691     0.319062     0.006628     0.947711    
-0.004682    0.034505     0.999394     -0.017235    0.036256     0.999194    
-0.009239    -0.007348    0.999930     -0.013908    -0.028310    0.999502    
0.010462     -0.015958    0.999818     -0.007292    0.022247     0.999726    
-0.106385    0.030308     0.993863     -0.116837    0.160129     0.980157    
0.054031     0.023148     0.998271     0.005209     -0.243181    0.969967    
-0.018468    -0.020574    0.999618     0.005102     0.021436     0.999757    
-0.002323    -0.000393    0.999997     -0.020385    -0.009698    0.999745    
-0.055006    0.018792     0.998309     -0.037728    0.392700     0.918892    
-0.031460    0.021839     0.999266     -0.062138    0.059464     0.996295    
-0.140637    -0.027762    0.989672     -0.285541    -0.001254    0.958366    
0.037310     -0.081059    0.996011     0.081953     -0.088710    0.992680    
0.087831     -0.203864    0.975051     0.132234     -0.746623    0.651972    
0.075295     -0.099262    0.992209     -0.059271    -0.234951    0.970198    
0.039708     0.045921     0.998156     -0.138845    -0.001230    0.990313    
0.002870     0.006572     0.999974     0.170354     -0.088986    0.981357    
-0.048050    0.017974     0.998683     -0.076093    0.158957     0.984349    
-0.015812    -0.017436    0.999723     -0.011081    -0.011636    0.999871    
-0.042228    0.061172     0.997234     -0.095950    0.046714     0.994289    
-0.007287    -0.006476    0.999952     -0.048710    -0.019936    0.998614    
0.025785     0.002869     0.999663     -0.024192    -0.041934    0.998827    
-0.041413    0.059031     0.997397     -0.032714    0.054402     0.997983    
-0.006694    0.007357     0.999951     0.035364     -0.004197    0.999366    
-0.009011    -0.007837    0.999929     -0.000602    0.002089     0.999998    
-0.103287    0.005141     0.994638     -0.076246    0.032527     0.996558    
0.015029     0.047759     0.998746     0.071679     0.089508     0.993403    
0.060441     -0.012707    0.998091     0.095837     0.220474     0.970673    
0.033154     -0.036408    0.998787     0.091404     -0.019098    0.995631    
0.034688     0.051187     0.998087     0.029336     0.060464     0.997739    
-0.026090    0.002825     0.999656     -0.064547    0.078528     0.994820    
0.036120     0.015329     0.999230     -0.039947    -0.080090    0.995987    
-0.022793    -0.030138    0.999286     -0.050651    -0.015808    0.998591    
-0.010302    0.013902     0.999850     -0.034866    0.009390     0.999348    
-0.011380    -0.002720    0.999932     -0.021878    -0.009749    0.999713    
0.062397     0.005230     0.998038     0.548941     -0.659291    0.513809    
-0.035493    0.000695     0.999370     -0.017766    0.006547     0.999821    
0.050154     0.000609     0.998741     0.026251     0.045060     0.998639    
0.001133     -0.008449    0.999964     0.002783     -0.004557    0.999986    
0.025877     0.014509     0.999560     0.004002     0.000266     0.999992    
0.067582     0.006977     0.997689     0.066187     0.136705     0.988398    
-0.041023    0.025056     0.998844     -0.149425    -0.185444    0.971227    
0.017252     -0.016561    0.999714     -0.039666    -0.004409    0.999203    
0.001135     0.011893     0.999929     0.000652     0.099154     0.995072    
-0.237488    0.028986     0.970958     -0.617750    0.555566     0.556535    
0.046547     -0.000652    0.998916     0.067549     -0.022207    0.997469    
0.023507     -0.009764    0.999676     0.050464     0.005256     0.998712    
0.020944     -0.002270    0.999778     0.028604     -0.033803    0.999019    
-0.039844    0.036400     0.998543     -0.025554    0.127832     0.991467    
-0.010453    0.014310     0.999843     -0.020015    0.006996     0.999775    
0.038174     0.039658     0.998484     0.122418     0.057704     0.990800    
-0.048014    -0.000174    0.998847     -0.078624    0.010329     0.996851    
0.024513     -0.004640    0.999689     -0.027503    -0.091137    0.995459    
0.070828     -0.004438    0.997479     0.069471     -0.021239    0.997358    
-0.010751    0.003821     0.999935     -0.021941    -0.028631    0.999349    
0.012648     0.094655     0.995430     0.054652     0.123434     0.990847    
0.005507     0.002806     0.999981     -0.015900    0.018163     0.999709    
0.083854     0.029610     0.996038     0.041279     -0.032081    0.998632    
0.003965     0.023546     0.999715     -0.026003    -0.014911    0.999551    
-0.014020    0.051484     0.998575     -0.092717    0.000547     0.995692    
-0.005539    0.020441     0.999776     -0.036018    0.075746     0.996476    
0.000672     0.006287     0.999980     0.004629     -0.010040    0.999939    
-0.030279    -0.014908    0.999430     0.015922     -0.010413    0.999819    
-0.005180    -0.012339    0.999910     -0.015408    -0.011389    0.999816    
-0.001636    0.018124     0.999834     0.193374     0.213170     0.957687    
-0.005770    0.021775     0.999746     -0.000024    0.069317     0.997595    
-0.012059    -0.013128    0.999841     0.001994     -0.015190    0.999883    
-0.111162    -0.037231    0.993105     -0.249440    0.224160     0.942089    
0.000951     -0.020999    0.999779     0.023707     -0.032556    0.999189    
0.043598     -0.050558    0.997769     0.034132     -0.041251    0.998566    
0.035276     0.004456     0.999368     0.037654     -0.020925    0.999072    
0.016534     0.008246     0.999829     0.041971     0.001518     0.999118    
-0.010883    0.019577     0.999749     0.049435     -0.038689    0.998028    
0.031933     -0.060666    0.997647     0.062573     -0.089904    0.993983    
0.022447     -0.046151    0.998682     0.036958     -0.032198    0.998798    
-0.005691    0.050740     0.998696     0.074592     -0.070267    0.994735    
-0.049195    -0.086968    0.994996     -0.094506    0.037723     0.994809    
-0.026073    0.015534     0.999539     -0.019541    0.010369     0.999755    
-0.029907    -0.013940    0.999455     0.157048     -0.004012    0.987583    
0.004084     -0.008485    0.999956     -0.001666    -0.071185    0.997462    
-0.017835    0.013727     0.999747     0.261924     0.083961     0.961429    
0.051722     -0.043489    0.997714     -0.088886    0.099846     0.991025    
-0.010438    0.011846     0.999875     0.002269     0.028862     0.999581    
-0.032851    0.046377     0.998384     -0.005807    0.079463     0.996821    
-0.087140    -0.091362    0.991998     -0.181496    -0.135881    0.973959    
0.066416     -0.007094    0.997767     0.129776     -0.049688    0.990298    
-0.004117    -0.005443    0.999977     -0.018497    0.013240     0.999741    
0.040053     0.025957     0.998860     -0.158330    0.028643     0.986971    
0.057033     -0.037842    0.997655     0.113210     -0.165181    0.979744    
0.054714     -0.011146    0.998440     -0.258765    -0.142793    0.955328    
-0.013003    -0.016889    0.999773     0.072723     0.082492     0.993935    
0.036507     -0.030095    0.998880     0.016890     -0.019215    0.999673    
-0.028781    -0.050920    0.998288     -0.396900    -0.245070    0.884540    
0.027556     -0.017593    0.999465     0.001126     -0.045967    0.998942    
0.096020     0.002890     0.995375     0.065663     0.058844     0.996105    
0.006862     -0.006331    0.999956     0.004582     0.019706     0.999795    
-0.009289    -0.006906    0.999933     -0.002963    0.020834     0.999779    
-0.042037    0.078037     0.996064     -0.098289    0.090411     0.991042    
0.015833     -0.026230    0.999530     0.086484     0.125240     0.988350    
0.034384     -0.008998    0.999368     0.031907     -0.072471    0.996860    
-0.012929    0.059088     0.998169     -0.028377    -0.062022    0.997671    
0.007125     -0.015630    0.999852     -0.000361    -0.020750    0.999785    
-0.061338    0.006546     0.998096     -0.275797    0.012890     0.961129    
-0.028144    0.030764     0.999130     -0.041985    0.006849     0.999095    
0.020742     -0.015760    0.999661     0.067577     -0.090017    0.993645    
0.014917     0.004575     0.999878     0.002305     0.015377     0.999879    
-0.011629    0.057230     0.998293     -0.025618    0.128199     0.991418    
0.026552     -0.014784    0.999538     0.033442     -0.018061    0.999277    
0.002385     -0.009605    0.999951     0.013988     -0.053061    0.998493    
0.009732     -0.106603    0.994254     -0.041522    -0.128830    0.990797    
-0.017921    -0.021991    0.999598     0.006880     -0.029811    0.999532    
0.008731     -0.010099    0.999911     0.035092     -0.023817    0.999100    
0.005768     -0.011398    0.999918     0.006329     -0.016255    0.999848    
0.004608     -0.060295    0.998170     -0.086855    -0.001372    0.996220    
0.032612     0.007619     0.999439     0.005157     -0.049369    0.998767    
-0.023911    -0.002111    0.999712     0.021784     -0.066059    0.997578    
0.019301     -0.013118    0.999728     0.089753     0.016027     0.995835    
0.046252     -0.000432    0.998930     -0.008069    0.008744     0.999929    
0.133444     -0.127286    0.982848     -0.029641    -0.114579    0.992972    
0.020618     0.020623     0.999575     0.082222     -0.068225    0.994276    
0.003961     -0.008533    0.999956     0.009833     0.022641     0.999695    
-0.006062    0.003524     0.999975     -0.018084    -0.000424    0.999836    
-0.036086    -0.061989    0.997424     -0.087741    -0.019835    0.995946    
0.069762     -0.041845    0.996686     -0.041961    -0.345909    0.937329    
-0.043030    -0.023341    0.998801     0.175632     0.023725     0.984170    
0.017017     0.040121     0.999050     0.078973     -0.033205    0.996324    
0.013345     0.026621     0.999556     -0.021727    -0.018831    0.999587    
0.043003     0.009894     0.999026     0.046988     -0.054925    0.997384    
0.035903     0.042760     0.998440     -0.040220    0.036753     0.998515    
-0.013156    0.056079     0.998340     0.197676     0.147293     0.969138    
-0.000063    -0.007073    0.999975     -0.017094    0.010534     0.999798    
-0.013762    0.007519     0.999877     -0.028486    -0.013062    0.999509    
-0.007528    0.008596     0.999935     -0.046389    0.024606     0.998620    
-0.007408    -0.005705    0.999956     0.000192     -0.016817    0.999859    
-0.003019    0.030199     0.999539     0.081974     0.090097     0.992554    
0.054372     -0.137686    0.988982     0.092685     0.001079     0.995695    
-0.000010    -0.016117    0.999870     -0.028246    -0.044269    0.998620    
-0.020425    -0.016212    0.999660     -0.025790    -0.028948    0.999248    
-0.003325    -0.027732    0.999610     0.082919     -0.039236    0.995784    
0.014172     -0.011263    0.999836     0.094756     -0.023092    0.995233    
-0.055585    0.015166     0.998339     -0.026430    0.007211     0.999625    
0.029916     0.013382     0.999463     0.016237     0.020522     0.999658    
-0.000281    -0.000246    1.000000     -0.023875    -0.000360    0.999715    
0.030010     -0.036972    0.998866     0.077685     -0.064220    0.994907    
-0.009441    -0.061530    0.998061     0.126144     -0.094898    0.987462    
0.025946     0.000797     0.999663     -0.093460    0.015324     0.995505    
0.002134     0.031523     0.999501     0.003740     0.019367     0.999805    
-0.007523    0.003893     0.999964     -0.012510    -0.007527    0.999893    
-0.011085    -0.007373    0.999911     -0.046210    -0.073088    0.996254    
-0.055755    0.006476     0.998423     -0.040485    0.009278     0.999137    
-0.001191    0.007107     0.999974     -0.003417    0.000795     0.999994    
-0.034590    0.015044     0.999288     -0.148460    -0.182581    0.971917    
-0.008886    0.006325     0.999941     -0.053519    -0.078755    0.995456    
0.018855     -0.034260    0.999235     0.000971     -0.018697    0.999825    
0.061242     -0.071071    0.995589     -0.059131    -0.015226    0.998134    
-0.026297    0.020046     0.999453     -0.078775    0.091680     0.992668    
-0.000966    -0.003685    0.999993     0.003318     -0.008975    0.999954    
0.005436     0.003136     0.999980     0.019761     -0.002278    0.999802    
-0.003581    -0.014194    0.999893     0.024313     -0.009574    0.999659    
0.001865     0.031408     0.999505     0.015768     -0.082177    0.996493    
-0.085843    -0.037737    0.995594     -0.027215    -0.069555    0.997207    
0.009448     -0.003050    0.999951     0.032156     -0.054231    0.998010    
0.019332     -0.021566    0.999580     0.013765     -0.040735    0.999075    
0.044181     0.053361     0.997597     0.004825     0.134134     0.990951    
0.024019     -0.004817    0.999700     0.019042     0.020994     0.999598    
0.023250     -0.027398    0.999354     0.025709     -0.012599    0.999590    
0.018257     0.000141     0.999833     0.030117     0.015897     0.999420    
-0.025866    0.040961     0.998826     -0.103158    -0.044315    0.993677    
-0.019983    0.058809     0.998069     -0.121169    -0.045373    0.991594    
-0.010361    -0.019507    0.999756     0.089931     -0.227996    0.969500    
-0.043974    -0.005954    0.999015     -0.047494    -0.008375    0.998836    
-0.094551    0.019786     0.995323     0.045367     -0.135559    0.989730    
-0.002024    -0.002082    0.999996     0.073599     -0.100866    0.992174    
-0.002489    0.001785     0.999995     0.105399     -0.009382    0.994386    
-0.001277    -0.000435    0.999999     -0.051091    -0.404282    0.913206    
0.053840     0.030438     0.998086     -0.126932    -0.053171    0.990485    
0.002086     -0.014955    0.999886     0.017184     -0.027218    0.999482    
0.005997     0.002921     0.999978     0.019363     0.024401     0.999515    
-0.016606    0.024252     0.999568     -0.051756    -0.010429    0.998605    
-0.010789    -0.023359    0.999669     0.015542     -0.007042    0.999854    
0.044825     -0.101599    0.993815     -0.089284    0.183035     0.979044    
-0.008631    0.020376     0.999755     -0.033778    0.033513     0.998867    
-0.030482    -0.039433    0.998757     0.029644     -0.042628    0.998651    
-0.007530    0.054584     0.998481     0.121263     0.086772     0.988821    
0.042763     -0.034884    0.998476     -0.011125    -0.011912    0.999867    
-0.014014    -0.103662    0.994514     -0.001832    -0.146309    0.989237    
0.032798     -0.011704    0.999393     -0.442648    0.867090     -0.228510   
0.009981     0.003310     0.999945     -0.046839    -0.027829    0.998515    
0.090445     -0.023479    0.995625     0.095362     -0.133952    0.986389    
-0.051795    -0.100819    0.993556     0.086334     -0.072514    0.993624    
0.021463     0.010889     0.999710     0.021405     0.010982     0.999711    
0.024172     0.011421     0.999643     0.017690     0.023331     0.999571    
-0.054297    -0.007882    0.998494     -0.055522    -0.065013    0.996339    
-0.050389    0.003984     0.998722     -0.089709    0.035532     0.995334    
0.001843     0.046862     0.998900     0.000623     0.105342     0.994436    
-0.003378    0.049873     0.998750     -0.041506    0.130563     0.990571    
0.004792     0.019432     0.999800     -0.015601    0.038005     0.999156    
-0.041551    0.004024     0.999128     -0.031991    0.008347     0.999453    
-0.001920    0.011151     0.999936     -0.010899    0.000642     0.999940    
0.074511     -0.140992    0.987203     0.161928     -0.074352    0.983998    
-0.012809    -0.039725    0.999128     -0.009615    0.091777     0.995733    
-0.007469    0.027885     0.999583     0.023286     0.034591     0.999130    
-0.003997    0.055556     0.998448     -0.002688    -0.011591    0.999929    
0.005299     0.004691     0.999975     0.002841     0.007240     0.999970    
0.008486     0.104241     0.994516     0.072453     0.135198     0.988166    
-0.012999    0.003669     0.999909     0.006702     -0.026615    0.999623    
0.014142     0.009047     0.999859     0.039087     -0.010204    0.999184    
-0.209590    0.122306     0.970110     -0.368099    0.497536     0.785469    
0.013933     0.004274     0.999894     0.079385     -0.020965    0.996624    
-0.002838    -0.008256    0.999962     -0.000695    -0.046373    0.998924    
-0.070760    0.038637     0.996745     -0.136451    0.031712     0.990139    
0.027021     -0.013963    0.999537     0.054621     0.083004     0.995051    
-0.044303    -0.057823    0.997343     -0.003267    0.023294     0.999723    
0.032945     0.024595     0.999155     0.010151     -0.020546    0.999737    
0.028694     -0.001691    0.999587     0.003923     -0.011448    0.999927    
0.021216     -0.045850    0.998723     0.007058     -0.049368    0.998756    
0.026273     -0.018514    0.999483     0.036873     -0.090555    0.995209    
-0.010235    0.003611     0.999941     -0.055887    0.016531     0.998300    
0.019874     -0.001190    0.999802     0.035249     0.007071     0.999354    
-0.011412    -0.002490    0.999932     -0.043886    -0.006505    0.999015    
-0.051318    0.034756     0.998077     -0.052907    0.046418     0.997520    
0.013052     0.027226     0.999544     0.002765     0.083098     0.996538    
0.012434     -0.003083    0.999918     0.010411     0.005906     0.999928    
-0.052726    -0.024475    0.998309     -0.054934    -0.058236    0.996790    
0.138530     -0.039207    0.989582     0.172608     -0.160866    0.971766    
-0.022655    -0.014662    0.999636     -0.014689    -0.017807    0.999734    
0.056415     0.016767     0.998267     0.039767     -0.001105    0.999208    
-0.002791    -0.014872    0.999886     -0.056285    0.001924     0.998413    
-0.026225    -0.018227    0.999490     -0.100954    -0.056709    0.993274    
0.019016     0.010955     0.999759     0.020246     0.026562     0.999442    
0.076709     -0.019242    0.996868     0.081492     -0.001833    0.996672    
0.012273     0.029267     0.999496     0.039317     -0.047025    0.998120    
-0.071267    -0.015133    0.997342     -0.125445    -0.041256    0.991242    
0.009409     -0.044472    0.998966     0.054506     -0.068207    0.996181    
0.144615     -0.006894    0.989464     -0.045853    0.237853     0.970218    
-0.026054    -0.000160    0.999661     -0.026216    0.010144     0.999605    
0.014436     -0.010307    0.999843     0.000320     0.002943     0.999996    
0.079780     0.015857     0.996686     -0.159178    0.129443     0.978727    
0.022406     -0.094521    0.995271     -0.392000    -0.337599    0.855782    
0.029660     0.002396     0.999557     0.003514     -0.063506    0.997975    
-0.015920    0.063629     0.997847     0.030971     0.132430     0.990708    
-0.020796    0.037010     0.999098     0.122692     0.109790     0.986353    
0.039577     0.006587     0.999195     0.082873     0.069875     0.994107    
-0.026640    0.027380     0.999270     -0.029686    0.034788     0.998954    
-0.008465    0.013549     0.999872     -0.011825    -0.067649    0.997639    
-0.020419    0.043678     0.998837     -0.029522    0.015305     0.999447    
-0.003763    0.141506     0.989930     0.170207     0.049242     0.984177    
0.009012     -0.015096    0.999845     -0.001407    -0.021596    0.999766    
0.055146     0.061433     0.996587     0.025631     0.046391     0.998594    
0.001286     -0.025116    0.999684     0.009245     -0.098598    0.995084    
0.059581     -0.025390    0.997900     0.162923     -0.074665    0.983810    
0.058343     -0.029546    0.997859     0.102899     0.020613     0.994478    
-0.005537    0.031328     0.999494     -0.043212    0.009814     0.999018    
0.013546     -0.009140    0.999866     0.012743     -0.006668    0.999897    
-0.002678    -0.008456    0.999961     -0.058296    -0.037677    0.997588    
0.044595     -0.053919    0.997549     0.061748     -0.061236    0.996212    
0.010203     -0.006612    0.999926     0.015545     -0.008081    0.999846    
0.024089     -0.045433    0.998677     -0.016930    -0.106394    0.994180    
-0.035893    0.069804     0.996915     -0.040997    0.092195     0.994897    
-0.007939    -0.012257    0.999893     0.008547     -0.044752    0.998962    
-0.007472    0.006644     0.999950     -0.011913    0.004509     0.999919    
0.051050     -0.051377    0.997374     0.121608     0.593564     0.795546    
-0.079658    -0.034099    0.996239     -0.338859    -0.073706    0.937946    
0.018960     -0.036527    0.999153     0.014724     -0.070823    0.997380    
0.001209     -0.014823    0.999889     -0.006947    -0.054883    0.998469    
0.015753     0.018829     0.999699     0.025813     -0.031658    0.999165    
-0.020475    -0.000730    0.999790     -0.039060    0.009370     0.999193    
0.032440     -0.032176    0.998956     -0.013169    0.073336     0.997220    
-0.074034    0.076034     0.994353     -0.269996    -0.132463    0.953706    
0.011851     0.026136     0.999588     -0.037486    0.016681     0.999158    
0.004726     -0.002606    0.999985     0.000001     -0.004022    0.999992    
-0.005951    0.002314     0.999980     -0.043354    0.024810     0.998752    
0.030046     0.046085     0.998486     0.043585     -0.094618    0.994559    
-0.002882    -0.016885    0.999853     0.451292     -0.517187    0.727223    
-0.020929    -0.017908    0.999621     -0.128193    -0.146492    0.980870    
0.114890     0.025548     0.993050     0.010968     0.006870     0.999916    
-0.035881    0.003293     0.999351     -0.002316    -0.193115    0.981173    
-0.011594    -0.028829    0.999517     -0.016469    -0.023092    0.999598    
0.029635     -0.002732    0.999557     0.065391     -0.004623    0.997849    
0.078348     0.066829     0.994684     -0.116148    0.041128     0.992380    
0.006101     -0.039368    0.999206     -0.229516    -0.022193    0.973052    
-0.019998    0.066074     0.997614     -0.019623    0.181045     0.983279    
-0.032722    0.020980     0.999244     -0.045017    0.028817     0.998571    
0.011936     -0.118478    0.992885     -0.204901    0.267806     0.941433    
-0.012467    -0.021673    0.999687     -0.081778    0.060965     0.994784    
-0.004785    0.008213     0.999955     -0.114884    -0.113681    0.986853    
0.003190     0.029117     0.999571     -0.032808    0.066234     0.997265    
-0.013280    -0.004687    0.999901     -0.001113    -0.006123    0.999981    
-0.002260    -0.006684    0.999975     0.010355     0.025111     0.999631    
-0.004435    -0.015986    0.999862     -0.013755    0.031437     0.999411    
-0.117834    0.008626     0.992996     -0.073970    -0.081432    0.993930    
-0.015982    -0.041991    0.998990     -0.051352    -0.100215    0.993640    
-0.137670    0.172218     0.975391     -0.591445    0.722982     0.357057    
0.088435     -0.051392    0.994755     -0.015538    0.163612     0.986403    
-0.036367    0.021870     0.999099     -0.062190    -0.002299    0.998062    
0.006398     0.005700     0.999963     -0.003065    -0.005391    0.999981    
-0.048999    -0.005399    0.998784     -0.092685    0.055213     0.994163    
0.035300     0.010366     0.999323     0.050963     0.015064     0.998587    
0.056905     0.075499     0.995521     -0.237351    0.058043     0.969688    
0.044598     0.031651     0.998504     -0.152300    0.093957     0.983858    
0.015649     0.022114     0.999633     0.014683     0.018270     0.999725    
-0.008845    0.015258     0.999844     -0.025487    -0.050198    0.998414    
0.017173     0.029558     0.999415     0.114673     0.087989     0.989499    
0.002804     0.006457     0.999975     0.018220     0.049218     0.998622    
0.016259     -0.003597    0.999861     0.011845     -0.026276    0.999585    
-0.011832    -0.001860    0.999928     -0.012675    -0.023955    0.999633    
-0.045973    0.019465     0.998753     -0.085695    0.028303     0.995919    
-0.017599    -0.012582    0.999766     -0.003722    -0.050744    0.998705    
0.004068     0.010571     0.999936     0.026123     0.000081     0.999659    
-0.060352    0.035965     0.997529     -0.012562    0.086606     0.996163    
-0.008035    0.070066     0.997510     -0.082526    0.084491     0.993001    
-0.023159    -0.094572    0.995249     0.220541     -0.165716    0.961197    
-0.015884    0.007049     0.999849     -0.041527    0.008398     0.999102    
-0.015845    0.014288     0.999772     0.000462     0.021190     0.999775    
-0.047589    0.053249     0.997447     -0.104224    0.030403     0.994089    
-0.015306    0.019402     0.999695     -0.035130    0.031769     0.998878    
0.003155     0.009142     0.999953     0.023659     0.011225     0.999657    
-0.020880    0.059823     0.997991     -0.014102    0.112663     0.993533    
-0.005046    -0.001824    0.999986     0.015343     0.001465     0.999881    
-0.031265    0.034295     0.998923     -0.053392    -0.077670    0.995549    
-0.117468    0.040829     0.992237     0.065364     -0.242596    0.967923    
-0.021822    0.009083     0.999721     -0.001186    0.060846     0.998146    
0.018565     0.002959     0.999823     0.031473     0.001288     0.999504    
-0.004410    0.017249     0.999842     -0.020452    0.006194     0.999772    
0.005568     0.000494     0.999984     -0.046946    0.089435     0.994886    
-0.023545    0.014014     0.999624     -0.240872    -0.015655    0.970431    
-0.035833    -0.010197    0.999306     -0.097918    0.032764     0.994655    
0.008399     -0.019216    0.999780     -0.015666    -0.031318    0.999387    
-0.042392    0.050091     0.997845     -0.053175    0.074599     0.995795    
0.004884     -0.004736    0.999977     0.000890     -0.001810    0.999998    
-0.010610    0.006144     0.999925     -0.033377    0.006415     0.999422    
0.023793     0.116765     0.992874     -0.048727    0.062842     0.996833    
0.001277     -0.005463    0.999984     0.004374     -0.004478    0.999980    
0.016872     -0.025326    0.999537     0.051892     -0.037385    0.997953    
0.022701     0.002693     0.999739     0.024519     0.003596     0.999693    
0.027753     0.063334     0.997606     0.042340     0.086603     0.995343    
0.007287     -0.002041    0.999971     0.003855     -0.005220    0.999979    
-0.023565    -0.011479    0.999656     0.045274     0.133078     0.990071    
-0.027849    -0.010199    0.999560     -0.030741    0.093176     0.995175    
0.000735     0.009930     0.999950     0.000155     0.023857     0.999715    
-0.016969    0.046361     0.998781     -0.180092    0.127114     0.975402    
-0.001130    0.018653     0.999825     0.043060     0.063020     0.997083    
0.001758     -0.000535    0.999998     0.012433     -0.006694    0.999900    
-0.010088    0.014714     0.999841     -0.033646    0.026083     0.999093    
-0.023046    0.059057     0.997989     -0.066006    0.075599     0.994951    
0.011644     -0.026899    0.999570     0.030890     0.012729     0.999442    
0.007531     0.000519     0.999972     -0.028261    -0.010169    0.999549    
0.025032     -0.020662    0.999473     0.032804     0.020448     0.999253    
-0.007364    0.002887     0.999969     -0.030805    -0.004529    0.999515    
0.000037     -0.002500    0.999997     -0.007043    -0.002101    0.999973    
0.013087     -0.040933    0.999076     0.062707     -0.058776    0.996300    
0.018817     0.011672     0.999755     -0.061398    -0.184234    0.980963    
-0.003152    0.018191     0.999830     -0.032964    0.022650     0.999200    
-0.005031    -0.016730    0.999847     0.026126     -0.046955    0.998555    
-0.076905    0.035758     0.996397     -0.004322    0.081643     0.996652    
0.016435     -0.061170    0.997992     0.055606     -0.071463    0.995892    
-0.027109    -0.011417    0.999567     0.008908     0.223549     0.974652    
0.002045     0.018868     0.999820     -0.015345    0.036230     0.999226    
0.012131     -0.007996    0.999894     0.008625     -0.001346    0.999962    
-0.029756    -0.127336    0.991413     -0.041786    0.275392     0.960423    
-0.024097    0.028338     0.999308     -0.041768    0.042258     0.998233    
-0.043008    0.020162     0.998871     0.097826     0.056930     0.993574    
-0.058805    -0.046973    0.997164     -0.122369    0.444372     0.887445    
0.013275     -0.050396    0.998641     0.045554     0.049330     0.997743    
-0.039047    0.031179     0.998751     -0.030998    0.048036     0.998364    
0.010546     -0.006246    0.999925     0.032652     0.063147     0.997470    
-0.005083    0.042911     0.999066     -0.050384    0.038021     0.998006    
-0.040982    -0.016820    0.999018     -0.028108    -0.011964    0.999533    
0.005712     0.016449     0.999848     0.008488     0.018318     0.999796    
0.008178     0.018037     0.999804     0.059035     0.051169     0.996944    
0.019777     0.017998     0.999642     0.047921     0.190731     0.980472    
-0.005818    0.003991     0.999975     -0.001510    0.003846     0.999992    
-0.015511    0.004677     0.999869     0.005099     0.012392     0.999910    
-0.006621    -0.018971    0.999798     -0.028074    0.161316     0.986503    
0.003329     0.002472     0.999991     -0.009654    -0.012084    0.999880    
0.036710     0.050177     0.998065     0.243979     0.248172     0.937489    
0.063732     -0.015730    0.997843     0.129824     -0.042889    0.990609    
0.048077     0.010301     0.998790     0.042833     0.014583     0.998976    
0.154763     -0.124294    0.980102     0.208164     0.036616     0.977408    
-0.016149    0.017634     0.999714     -0.066330    -0.049923    0.996548    
0.001633     0.003514     0.999992     0.005007     0.008784     0.999949    
0.034197     0.001328     0.999414     0.056823     -0.003107    0.998379    
-0.003620    -0.006555    0.999972     0.023986     -0.018486    0.999541    
0.040952     -0.000572    0.999161     0.117564     0.111858     0.986745    
-0.149197    -0.116632    0.981905     -0.077464    0.151550     0.985410    
-0.018242    -0.021169    0.999609     -0.074986    0.060974     0.995319    
-0.014453    -0.017001    0.999751     -0.002864    0.018218     0.999830    
0.027551     0.021285     0.999394     0.035917     0.024747     0.999048    
-0.019427    -0.092125    0.995558     0.031972     -0.042607    0.998580    
0.070599     -0.034397    0.996912     -0.000709    0.092433     0.995719    
0.015676     -0.033823    0.999305     -0.149753    0.011301     0.988659    
-0.016331    0.008115     0.999834     -0.049243    0.028676     0.998375    
0.057200     0.041645     0.997494     0.062896     0.067128     0.995760    
-0.068274    -0.022907    0.997404     0.153391     -0.272369    0.949888    
0.002761     -0.002969    0.999992     0.015438     0.003216     0.999876    
0.007883     -0.009992    0.999919     0.040166     0.046929     0.998090    
0.019231     0.011081     0.999754     0.053539     0.000626     0.998566    
0.002961     -0.028504    0.999589     0.032742     -0.068991    0.997080    
0.033372     0.189912     0.981234     -0.243103    -0.049957    0.968713    
-0.015048    0.013612     0.999794     -0.015528    -0.045538    0.998842    
0.010243     0.000131     0.999947     -0.083062    -0.109001    0.990565    
0.064139     -0.039920    0.997142     0.114323     -0.050126    0.992178    
0.008058     0.004948     0.999955     0.013892     -0.017862    0.999744    
-0.016808    -0.011498    0.999793     -0.007799    -0.004079    0.999961    
0.020309     0.043941     0.998828     -0.713948    0.317765     0.623943    
-0.007924    -0.060106    0.998161     -0.045561    -0.076090    0.996059    
-0.023499    0.019466     0.999534     -0.093735    0.036300     0.994935    
-0.002109    0.009055     0.999957     -0.019052    0.009497     0.999773    
0.011649     -0.035435    0.999304     0.086325     -0.001305    0.996266    
0.007106     -0.006468    0.999954     -0.031410    0.010834     0.999448    
-0.032571    -0.010266    0.999417     -0.110747    0.039857     0.993049    
-0.015704    0.025891     0.999541     -0.022338    0.044454     0.998762    
0.020811     0.022331     0.999534     0.012752     0.020240     0.999714    
0.021832     -0.037778    0.999048     0.068797     -0.082294    0.994231    
0.052344     -0.009978    0.998579     0.089129     0.219405     0.971554    
-0.012098    -0.006588    0.999905     -0.080097    0.011256     0.996724    
-0.030294    -0.028123    0.999145     -0.017593    0.000005     0.999845    
0.007243     0.007055     0.999949     0.013727     0.003331     0.999900    
-0.005291    0.009456     0.999941     0.002186     0.006504     0.999976    
-0.009628    -0.012713    0.999873     -0.022291    -0.021933    0.999511    
0.016153     -0.032220    0.999350     -0.147442    -0.030707    0.988594    
0.020909     -0.025484    0.999456     0.313490     -0.518229    0.795715    
-0.024880    0.040810     0.998857     0.016032     0.045092     0.998854    
0.003512     -0.028442    0.999589     -0.083200    -0.182413    0.979695    
-0.026476    0.011970     0.999578     -0.015634    0.024742     0.999572    
-0.006308    -0.009484    0.999935     -0.014981    0.028180     0.999491    
0.013707     0.012617     0.999826     0.020651     0.018807     0.999610    
0.023312     0.038922     0.998970     0.032360     -0.039046    0.998713    
-0.013923    0.000021     0.999903     -0.005653    0.012312     0.999908    
-0.045272    0.049197     0.997763     0.251562     0.353920     0.900809    
0.028830     0.038337     0.998849     0.031108     0.042308     0.998620    
-0.029494    -0.000836    0.999565     -0.035940    0.014157     0.999254    
-0.007665    0.018734     0.999795     0.036182     0.015881     0.999219    
0.021618     0.025690     0.999436     -0.050452    -0.026973    0.998362    
-0.018408    0.014538     0.999725     -0.002270    -0.022322    0.999748    
0.003500     -0.028042    0.999601     -0.020479    -0.055675    0.998239    
-0.042047    0.003879     0.999108     -0.562650    -0.279547    0.777996    
-0.004795    -0.027651    0.999606     0.039540     0.013515     0.999126    
0.012664     -0.003526    0.999914     -0.002870    -0.003702    0.999989    
0.018802     -0.024707    0.999518     0.037904     0.057148     0.997646    
-0.006599    0.027538     0.999599     -0.026804    0.023859     0.999356    
-0.004864    0.006759     0.999965     -0.004264    0.015964     0.999863    
-0.002112    0.007247     0.999972     0.052681     0.045029     0.997596    
-0.001144    -0.014731    0.999891     0.011622     -0.074882    0.997125    
0.003683     0.007546     0.999965     0.176078     -0.041788    0.983489    
0.035633     -0.167476    0.985232     -0.167502    -0.221299    0.960713    
0.005871     0.015278     0.999866     0.004348     -0.211736    0.977317    
-0.005245    0.007801     0.999956     -0.009530    -0.013190    0.999868    
-0.005862    0.039387     0.999207     -0.036674    0.046609     0.998240    
-0.023620    0.028223     0.999323     -0.034437    0.057200     0.997769    
-0.038906    0.098106     0.994415     0.120381     -0.063800    0.990676    
0.005178     -0.007688    0.999957     0.006531     -0.013949    0.999881    
-0.022119    0.048123     0.998596     0.027357     0.116512     0.992812    
0.041404     0.026259     0.998797     -0.001740    0.035642     0.999363    
-0.051271    -0.031468    0.998189     -0.088461    -0.121452    0.988648    
-0.006814    -0.072619    0.997336     0.085692     0.051151     0.995008    
-0.045439    -0.055576    0.997420     -0.072068    -0.058925    0.995658    
0.005434     -0.007175    0.999960     -0.001520    0.010318     0.999946    
0.033743     -0.006031    0.999412     0.276645     0.301537     0.912438    
0.000671     -0.009512    0.999955     -0.020336    -0.008989    0.999753    
-0.016672    0.012130     0.999787     0.009068     0.033042     0.999413    
-0.032319    -0.015415    0.999359     -0.041975    -0.030411    0.998656    
0.016307     0.006008     0.999849     0.006474     0.039047     0.999217    
0.004079     -0.033145    0.999442     0.003710     -0.032165    0.999476    
-0.031515    -0.019500    0.999313     -0.040723    -0.048530    0.997991    
-0.017548    -0.042526    0.998941     -0.037898    -0.001919    0.999280    
0.028758     0.053757     0.998140     0.057758     0.047993     0.997176    
0.026766     -0.004582    0.999631     0.049316     0.007561     0.998755    
-0.065425    -0.057569    0.996195     -0.046152    0.095166     0.994391    
-0.086830    -0.024851    0.995913     -0.009781    -0.107341    0.994174    
-0.077208    -0.018038    0.996852     -0.240810    0.073766     0.967765    
-0.015466    0.008310     0.999846     0.011644     -0.005112    0.999919    
-0.001427    0.001466     0.999998     -0.016986    0.018128     0.999691    
-0.030220    0.003895     0.999536     -0.042195    -0.054699    0.997611    
-0.056336    -0.037349    0.997713     -0.096307    0.080382     0.992101    
0.006158     0.024962     0.999669     0.029605     -0.097134    0.994831    
0.041573     0.015269     0.999019     -0.000518    0.052513     0.998620    
-0.018929    -0.012254    0.999746     -0.059520    0.162896     0.984846    
0.035224     0.021403     0.999150     -0.065400    0.068132     0.995530    
0.068522     0.007733     0.997620     0.220394     0.119807     0.968025    
0.006855     0.001723     0.999975     0.031359     0.008055     0.999476    
-0.023354    0.033106     0.999179     0.000257     0.010300     0.999947    
-0.073778    -0.060790    0.995420     0.079323     0.080657     0.993581    
-0.007934    0.016298     0.999836     -0.033028    0.006401     0.999434    
-0.013081    0.008358     0.999880     -0.024828    0.015149     0.999577    
0.005337     -0.010311    0.999933     0.024095     -0.015052    0.999596    
-0.011681    0.022287     0.999683     -0.070936    -0.135308    0.988261    
-0.082144    -0.080665    0.993351     0.050584     -0.044377    0.997733    
0.017811     -0.002185    0.999839     0.051652     0.026297     0.998319    
0.008314     0.066281     0.997766     -0.236970    0.170693     0.956404    
0.011371     -0.010307    0.999882     0.083643     0.040398     0.995676    
-0.052472    0.018188     0.998457     -0.106897    0.068866     0.991882    
0.129252     0.041642     0.990737     -0.050141    -0.030582    0.998274    
-0.135245    -0.102817    0.985463     -0.327704    -0.079794    0.941405    
-0.003380    -0.050423    0.998722     -0.088612    -0.045474    0.995028    
-0.002891    0.000921     0.999995     0.062388     -0.042455    0.997149    
-0.019677    0.024127     0.999515     -0.022207    0.044415     0.998766    
0.004624     0.002576     0.999986     -0.009587    -0.009544    0.999909    
0.008231     -0.013278    0.999878     0.010934     -0.096068    0.995315    
0.019506     -0.002787    0.999806     0.043959     -0.037679    0.998323    
0.008410     -0.030366    0.999503     0.009590     0.061209     0.998079    
-0.001798    0.027343     0.999625     -0.136418    -0.041196    0.989794    
-0.025825    0.013889     0.999570     0.031934     0.009710     0.999443    
-0.013752    -0.001790    0.999904     0.036095     -0.058085    0.997659    
-0.011994    -0.003219    0.999923     0.022971     0.063064     0.997745    
0.012508     0.017872     0.999762     0.025031     0.030617     0.999218    
-0.001057    -0.024004    0.999711     -0.020996    0.037703     0.999068    
-0.015519    -0.021809    0.999642     -0.016305    -0.012665    0.999787    
0.003773     0.000802     0.999993     0.022058     0.034080     0.999176    
-0.059427    0.034094     0.997650     0.189648     0.224722     0.955790    
0.006672     0.012116     0.999904     -0.003749    -0.043341    0.999053    
0.028887     0.032803     0.999044     0.157259     0.088523     0.983582    
-0.008917    0.102108     0.994733     -0.063971    0.029925     0.997503    
-0.070536    0.098163     0.992667     -0.083274    0.070006     0.994065    
0.006804     0.008741     0.999939     -0.048790    0.032156     0.998291    
-0.035471    -0.101825    0.994170     -0.049052    -0.132773    0.989932    
0.023540     -0.000809    0.999723     0.019421     0.005238     0.999798    
-0.026481    -0.009931    0.999600     -0.050398    -0.001251    0.998728    
-0.023412    0.031532     0.999229     -0.048719    0.102965     0.993491    
0.009437     -0.008110    0.999923     -0.004102    -0.049425    0.998769    
0.004125     -0.006959    0.999967     -0.003709    0.004219     0.999984    
0.049371     0.087202     0.994967     0.073658     0.037942     0.996562    
-0.021151    -0.016461    0.999641     -0.013117    -0.003129    0.999909    
-0.005260    0.010928     0.999926     -0.006788    0.008858     0.999938    
0.055483     -0.047322    0.997338     -0.047688    0.085697     0.995179    
-0.083648    0.000007     0.996495     -0.093274    0.047065     0.994527    
-0.033288    0.039276     0.998674     0.016690     0.023736     0.999579    
0.068033     -0.074984    0.994861     -0.309089    -0.415550    0.855443    
0.006827     0.010358     0.999923     -0.004225    0.032780     0.999454    
0.009366     -0.043658    0.999003     0.010403     -0.044411    0.998959    
-0.049864    -0.027759    0.998370     -0.038240    -0.079533    0.996098    
0.025061     -0.040778    0.998854     0.016820     -0.025886    0.999523    
-0.054916    -0.100971    0.993373     -0.028658    -0.075324    0.996747    
0.020874     -0.098647    0.994904     -0.012345    -0.066601    0.997703    
-0.033709    0.019117     0.999249     -0.088340    -0.053739    0.994640    
-0.016089    0.012604     0.999791     -0.016454    -0.101038    0.994746    
-0.014641    -0.003623    0.999886     -0.043470    -0.007657    0.999025    
-0.033473    -0.034603    0.998840     -0.018193    -0.102740    0.994542    
-0.007012    -0.015574    0.999854     -0.000197    -0.010305    0.999947    
-0.080110    0.067554     0.994494     -0.205726    0.017246     0.978458    
-0.045848    0.062419     0.996996     -0.185814    0.071033     0.980014    
0.008924     -0.006356    0.999940     -0.026580    -0.037362    0.998948    
0.050003     0.033940     0.998172     0.006386     -0.022321    0.999730    
0.012263     -0.020303    0.999719     0.026531     -0.015343    0.999530    
-0.070960    -0.011331    0.997415     -0.049041    -0.048990    0.997595    
-0.052534    0.027910     0.998229     0.026554     0.040298     0.998835    
-0.001417    -0.025286    0.999679     0.027751     -0.023785    0.999332    
0.042953     0.045256     0.998052     0.031539     0.100309     0.994456    
-0.030649    0.025796     0.999197     -0.080867    -0.023014    0.996459    
-0.012583    -0.016038    0.999792     0.008839     0.015035     0.999848    
-0.005975    -0.018768    0.999806     -0.026997    -0.024757    0.999329    
0.070387     -0.036956    0.996835     -0.198674    -0.253576    0.946693    
0.058715     0.024348     0.997978     -0.217553    0.017867     0.975885    
0.007387     0.006356     0.999953     0.029446     0.021651     0.999332    
-0.029981    0.019176     0.999366     0.036904     0.072315     0.996699    
-0.000494    -0.004871    0.999988     -0.007394    -0.017917    0.999812    
0.019013     -0.012686    0.999739     0.026460     -0.008218    0.999616    
-0.024444    0.067917     0.997391     0.036164     -0.168747    0.984996    
0.006103     0.034861     0.999374     -0.004928    0.015508     0.999868    
-0.038853    0.065299     0.997109     -0.357873    -0.012616    0.933685    
-0.014535    -0.002379    0.999892     0.001879     0.012618     0.999919    
-0.000278    -0.032351    0.999477     0.069874     -0.095248    0.992998    
0.014433     0.000145     0.999896     0.092251     -0.050840    0.994437    
0.055413     0.015573     0.998342     0.075720     -0.007279    0.997103    
-0.047145    0.054870     0.997380     -0.040605    0.040475     0.998355    
-0.010941    -0.004996    0.999928     -0.061447    -0.035018    0.997496    
-0.011892    0.012022     0.999857     -0.023407    0.017095     0.999580    
-0.036617    0.106664     0.993621     -0.004495    0.039907     0.999193    
0.006528     -0.009840    0.999930     0.009701     -0.000943    0.999953    
0.031232     0.065244     0.997380     0.025786     -0.137311    0.990192    
0.031264     0.035760     0.998871     0.062534     0.190849     0.979625    
0.003750     -0.014989    0.999881     -0.003315    -0.005772    0.999978    
0.012909     -0.044207    0.998939     0.011987     -0.073592    0.997216    
0.002861     -0.008809    0.999957     -0.006891    0.013993     0.999878    
-0.000212    0.023916     0.999714     0.020150     0.019096     0.999614    
0.011138     -0.035908    0.999293     -0.037493    0.140327     0.989395    
0.023069     0.027010     0.999369     0.078395     0.055478     0.995378    
-0.009240    -0.001191    0.999957     0.020454     0.026505     0.999439    
0.057323     -0.017261    0.998206     0.035044     0.013310     0.999297    
0.001784     0.007866     0.999967     0.000452     0.018047     0.999837    
-0.002554    -0.026057    0.999657     0.023018     -0.067419    0.997459    
-0.027231    -0.016833    0.999487     -0.099235    -0.051625    0.993724    
-0.028296    0.034784     0.998994     -0.143494    0.772796     0.618220    
0.010920     -0.004007    0.999932     -0.009543    0.014187     0.999854    
0.016903     -0.000079    0.999857     0.000258     -0.009666    0.999953    
-0.017291    -0.005345    0.999836     -0.028250    0.010789     0.999543    
-0.017943    0.059110     0.998090     0.007875     0.046835     0.998872    
0.008925     -0.008633    0.999923     0.090287     -0.018742    0.995739    
-0.044790    0.076544     0.996060     -0.021479    0.116997     0.992900    
0.031020     0.007630     0.999490     -0.102432    -0.010613    0.994683    
0.025959     -0.005327    0.999649     0.019605     -0.073485    0.997104    
-0.015657    0.012188     0.999803     0.023889     0.012573     0.999636    
-0.033731    -0.009131    0.999389     -0.043751    -0.020798    0.998826    
-0.015485    -0.019647    0.999687     0.079346     0.350605     0.933156    
-0.014497    -0.011398    0.999830     -0.014266    -0.009754    0.999851    
-0.032752    -0.021958    0.999222     -0.200694    -0.109129    0.973557    
0.016020     0.046377     0.998796     -0.037801    0.059838     0.997492    
-0.024254    -0.090805    0.995573     -0.169851    -0.316146    0.933382    
0.025536     -0.004972    0.999662     0.065190     -0.009088    0.997832    
-0.014504    -0.026777    0.999536     -0.006461    -0.008662    0.999942    
-0.033035    -0.001500    0.999453     0.033153     0.016823     0.999309    
0.041522     0.069747     0.996700     -0.269396    0.081014     0.959616    
